# .PCD v0.7 - Point Cloud Data file format
VERSION 0.7
FIELDS x y z rgb
SIZE 4 4 4 4
TYPE F F F F
COUNT 1 1 1 1
WIDTH 1051
HEIGHT 1
VIEWPOINT 0 0 0 1 0 0 0
POINTS 1051
DATA ascii
0.022499016 0.21197136 0.95100003 nan
0.024313947 0.21197137 0.95100003 nan
0.026128864 0.21197131 0.95100003 nan
0.027943758 0.21197136 0.95100003 nan
0.029727409 0.21174844 0.95000005 nan
0.031540409 0.21174844 0.95000005 nan
0.033353411 0.21174848 0.95000005 nan
0.035129398 0.21152556 0.94900006 nan
0.036940508 0.21152557 0.94900006 nan
0.038669944 0.21107981 0.94700003 nan
0.040391758 0.21063402 0.94500005 nan
0.042195253 0.21063399 0.94500005 nan
0.044045255 0.21085691 0.94600004 nan
0.045947582 0.2113027 0.94800013 nan
0.047958322 0.21219423 0.95200008 nan
0.049879678 0.21264005 0.95400006 nan
0.051862895 0.21330871 0.95700008 nan
0.053969823 0.21442316 0.96200013 nan
0.056037754 0.2153147 0.96600002 nan
0.057881311 0.21531475 0.96600002 -3.2269946e+38
0.060404941 0.21776661 0.97700006 -3.2396626e+38
0.063353002 0.22155575 0.99400002 nan
0.065643802 0.2228931 1 nan
0.067552254 0.22289312 1 nan
-0.0048390068 0.21896267 0.97400004 -2.7736485e+38
-0.0029801857 0.2189627 0.97400004 -2.7202194e+38
-0.0011156518 0.21783863 0.9690001 -2.6399972e+38
0.00073137321 0.21716419 0.96600002 -2.6799783e+38
0.0025695935 0.21671465 0.96400005 -3.4005762e+38
0.0043910332 0.21581537 0.96000004 nan
0.0061971378 0.21491614 0.95600009 nan
0.0080048423 0.21446651 0.95400006 nan
0.0098152068 0.21424173 0.95300007 nan
0.011621708 0.21401691 0.95200008 nan
0.013438577 0.21401688 0.95200008 nan
0.015255375 0.21401691 0.95200008 nan
0.017072206 0.21401691 0.95200002 nan
0.018869137 0.2137921 0.95100003 nan
0.020684106 0.21379212 0.95100003 nan
0.02249903 0.21379213 0.95100003 nan
0.024288332 0.21356732 0.95000005 nan
0.026128838 0.21379212 0.95100003 nan
0.027914396 0.21356733 0.95000011 nan
0.029727394 0.21356733 0.95000005 nan
0.031507231 0.2133425 0.94900006 nan
0.033283189 0.21311772 0.94800007 nan
0.035055399 0.21289293 0.94700003 nan
0.036862694 0.21289289 0.94700009 nan
0.038629122 0.21266811 0.94600004 nan
0.040349022 0.21221842 0.94400007 nan
0.042150609 0.21221843 0.94400007 nan
0.043998718 0.21244328 0.94500005 nan
0.045899116 0.21289292 0.94700003 nan
0.047807127 0.21334255 0.94900006 nan
0.049722806 0.21379215 0.95100003 nan
0.051700339 0.21446654 0.95400006 nan
0.053801499 0.21559057 0.95900005 nan
0.055805705 0.21626499 0.96200007 nan
0.057641625 0.21626502 0.96200013 nan
0.060404941 0.21963713 0.97700006 nan
-0.0048539042 0.22150764 0.97700006 -2.7733362e+38
-0.0029832646 0.2210542 0.97500002 -2.6932182e+38
-0.0011156444 0.21969387 0.96900004 -2.8266627e+38
0.00072986819 0.21856028 0.96400011 -3.2269427e+38
0.0025615636 0.21788011 0.96100003 nan
0.0043727104 0.21674649 0.95600009 nan
0.0061712693 0.21583955 0.95200002 nan
0.0079796407 0.2156129 0.95100003 nan
0.0097739678 0.21515945 0.94900006 nan
0.011585074 0.2151594 0.94900012 nan
0.013382083 0.2149327 0.94800007 nan
0.015207296 0.21515942 0.94900006 nan
0.01700045 0.21493271 0.94800007 nan
0.018809656 0.21493271 0.94800007 nan
0.020618824 0.21493271 0.94800007 nan
0.022428026 0.21493272 0.94800007 nan
0.024237229 0.21493272 0.94800007 nan
0.02604642 0.21493274 0.94800007 nan
0.027826266 0.21470599 0.94700003 nan
0.029602254 0.21447925 0.94600004 nan
0.031407624 0.21447925 0.94600004 nan
0.033177905 0.21425256 0.94500005 nan
0.034944326 0.21402583 0.94400007 nan
0.036706984 0.21379906 0.94300002 nan
0.038465828 0.21357238 0.94200003 nan
0.040220842 0.21334566 0.94100004 nan
0.042016625 0.21334571 0.94100004 nan
0.043812513 0.21334568 0.9410001 nan
0.045656785 0.21357237 0.94199997 nan
0.047504909 0.21379906 0.94299996 nan
0.049356848 0.21402578 0.94400007 nan
0.051266782 0.2144793 0.94600004 nan
0.053801522 0.2174266 0.95900005 nan
0.055805735 0.21810684 0.96200013 nan
0.057641625 0.21810682 0.96200013 nan
0.060404941 0.22150764 0.97700006 nan
-0.0048589204 0.22360685 0.97800004 -3.2932995e+38
-0.0029832404 0.22292091 0.97500002 nan
-0.0011098962 0.22040594 0.96400005 nan
0.00072984397 0.22040591 0.96400011 nan
0.0025456268 0.21834815 0.9550001 nan
0.0043406598 0.21697637 0.94900012 nan
0.006171247 0.21766225 0.95200002 nan
0.0079796519 0.21743366 0.95100003 nan
0.0097739901 0.21697634 0.94900006 nan
0.01158507 0.21697639 0.94900006 nan
0.013339745 0.21606183 0.94500005 nan
0.015207252 0.21697639 0.94900006 nan
0.016928731 0.21583314 0.94400012 nan
0.018730273 0.21583319 0.94400007 nan
0.020531846 0.21583316 0.94400007 nan
0.022333434 0.21583317 0.94400007 nan
0.024134992 0.21583319 0.94400012 nan
0.025936557 0.21583316 0.94400007 nan
0.027738092 0.21583319 0.94400007 nan
0.02947708 0.21537593 0.94200003 nan
0.03127484 0.2153759 0.94200003 nan
0.033037484 0.21514723 0.94100004 nan
0.03479629 0.21491863 0.94000006 nan
0.036551289 0.21469 0.93900007 nan
0.038343303 0.21469001 0.93900007 nan
0.040092573 0.21446137 0.93800002 nan
0.041882649 0.21446137 0.93800002 nan
0.043626219 0.21423276 0.93700004 nan
0.045414418 0.21423273 0.93700004 nan
0.047252983 0.21446137 0.93800002 nan
0.049043119 0.21446136 0.93800002 nan
0.050887451 0.21468998 0.93900007 nan
0.05284778 0.21537592 0.94200003 nan
0.054819554 0.21606185 0.94500005 nan
-0.0048589148 0.22547929 0.9780001 nan
-0.0029404163 0.22155991 0.96100003 nan
-0.0011098757 0.22225156 0.96400005 nan
0.00072529726 0.22086829 0.95800006 nan
0.0025456101 0.22017661 0.95500004 nan
0.0043406468 0.2187933 0.94900006 nan
0.0061323252 0.21810164 0.94600004 nan
0.00793772 0.21810165 0.94600004 nan
0.0097327959 0.21787113 0.94500011 nan
0.011524057 0.21764056 0.94400007 nan
0.01332563 0.21764052 0.94400007 nan
0.015127165 0.21764053 0.94400012 nan
0.016928738 0.2176405 0.94400007 nan
0.018710447 0.21741001 0.94300002 nan
0.020510128 0.21740994 0.94300002 nan
0.022309786 0.21741 0.94300002 nan
0.024109414 0.21740997 0.94299996 nan
0.025909076 0.21741001 0.94300002 nan
0.027679378 0.21717943 0.94200003 nan
0.029445814 0.21694888 0.94100004 nan
0.031208454 0.21671833 0.94000006 nan
0.032967262 0.2164878 0.93900007 nan
0.034722239 0.21625723 0.93800008 nan
0.036512338 0.21625724 0.93800002 nan
0.038302436 0.21625726 0.93800002 nan
0.040049829 0.21602668 0.93700004 nan
0.041838042 0.21602669 0.9370001 nan
0.043626189 0.21602669 0.93700004 nan
0.045414433 0.21602672 0.93700004 nan
0.047202617 0.21602669 0.93700004 nan
0.048990831 0.21602671 0.9370001 nan
0.05083321 0.21625721 0.93800002 nan
0.052791685 0.2169489 0.94100004 nan
0.054703526 0.21741 0.94300002 nan
-0.0048588887 0.22735175 0.97800004 nan
-0.0029037297 0.22061025 0.94900012 nan
-0.001092663 0.22061023 0.94900006 nan
0.00072307512 0.22200505 0.95500004 nan
0.0025109705 0.21898295 0.94200003 nan
0.0043315478 0.22014533 0.94700003 nan
0.0061258581 0.21968041 0.94500005 nan
0.0079209413 0.21944785 0.94400007 nan
0.0097224917 0.2194479 0.94400001 nan
0.011524072 0.21944791 0.94400007 nan
0.013325593 0.21944787 0.94400007 nan
0.01512718 0.21944788 0.94400007 nan
0.01692876 0.21944791 0.94400007 nan
0.018650936 0.21851805 0.94000006 nan
0.020423157 0.21828555 0.93900007 nan
0.02221513 0.21828559 0.93900007 nan
0.024007162 0.21828561 0.93900007 nan
0.025771653 0.21805313 0.93800002 nan
0.027532408 0.21782069 0.93700004 nan
0.029320588 0.21782066 0.93700004 nan
0.031042395 0.21735568 0.93500012 nan
0.032826789 0.21735567 0.93500012 nan
0.034611158 0.21735568 0.93500006 nan
0.036395557 0.21735571 0.93500012 nan
0.038179964 0.21735568 0.93500012 nan
0.039964318 0.21735568 0.93500006 nan
0.041704074 0.21712324 0.93400002 nan
0.043486558 0.21712327 0.93400002 nan
0.045269027 0.21712323 0.93400002 nan
0.047051504 0.21712326 0.93400002 nan
0.048833974 0.21712327 0.93400002 nan
0.050724849 0.21758823 0.93600011 nan
0.052679449 0.21828562 0.93900007 nan
0.054587491 0.21875049 0.94099998 nan
0.056982473 0.22107518 0.95100003 nan
0.058797397 0.22107518 0.95100003 nan
-0.0065397229 0.22289596 0.95100003 nan
-0.004724808 0.22289592 0.95100003 nan
-0.0029037409 0.22242717 0.94900006 nan
-0.0010926276 0.22242719 0.94900006 nan
0.00071694329 0.22195838 0.94700003 nan
0.0025189053 0.22148965 0.94500005 nan
0.0043041036 0.2205521 0.94100004 nan
0.0060999375 0.22055215 0.94099998 nan
0.0078957882 0.22055213 0.94100004 nan
0.0096710157 0.2200834 0.93900007 nan
0.011463014 0.22008336 0.93900007 nan
0.013255065 0.22008339 0.93900007 nan
0.015047064 0.22008336 0.93900007 nan
0.016821144 0.21984898 0.93800008 nan
0.018591417 0.21961461 0.9370001 nan
0.020379623 0.21961458 0.93700004 nan
0.022144167 0.21938026 0.93600011 nan
0.023930432 0.21938026 0.93600011 nan
0.025716743 0.2193802 0.93600011 nan
0.027473627 0.21914579 0.93500006 nan
0.029258003 0.21914585 0.93500006 nan
0.031009199 0.21891144 0.93400002 nan
0.032791682 0.21891145 0.93400002 nan
0.034574158 0.21891147 0.93400002 nan
0.03635662 0.21891144 0.93400002 nan
0.038139135 0.21891144 0.93400002 nan
0.039921612 0.21891145 0.93400002 nan
0.041659437 0.21867709 0.93300003 nan
0.04348655 0.21891144 0.93400002 nan
0.045269035 0.21891147 0.93400002 nan
0.047051504 0.21891142 0.93400002 nan
0.048833974 0.21891145 0.93400002 nan
0.050670616 0.21914583 0.93500006 nan
0.052679464 0.22008334 0.93900007 nan
0.054587521 0.22055213 0.94100004 nan
0.056922577 0.22266158 0.95000005 nan
0.058735564 0.22266158 0.95000005 nan
-0.0065397136 0.22471672 0.95100003 nan
-0.0047248006 0.22471668 0.95100003 nan
-0.0029037576 0.22424412 0.94900006 nan
-0.0010834094 0.22235373 0.94100004 nan
0.00071167573 0.22211744 0.94000006 nan
0.002502948 0.22188115 0.93900013 nan
0.004290361 0.22164485 0.93800008 nan
0.0060804617 0.22164486 0.93800002 nan
0.007879002 0.22188115 0.93900013 nan
0.0096710157 0.22188115 0.93900001 nan
0.011463022 0.22188118 0.93900007 nan
0.013255073 0.2218812 0.93900007 nan
0.015031016 0.22164485 0.93800002 nan
0.016821118 0.22164486 0.93800002 nan
0.018591395 0.22140859 0.9370001 nan
0.020379608 0.22140856 0.9370001 nan
0.022167819 0.22140855 0.9370001 nan
0.023930451 0.22117226 0.93600005 nan
0.025716716 0.22117227 0.93600011 nan
0.027502997 0.22117229 0.93600005 nan
0.02925803 0.22093594 0.93500012 nan
0.031042403 0.22093594 0.93500006 nan
0.032791704 0.22069964 0.93400002 nan
0.034574151 0.22069965 0.93400002 nan
0.036356635 0.22069967 0.93400002 nan
0.038139105 0.22069964 0.93400002 nan
0.039921574 0.22069967 0.93400002 nan
0.041704051 0.22069968 0.93400002 nan
0.043486521 0.22069965 0.93400002 nan
0.045269035 0.22069964 0.93400002 -3.3870227e+38
0.047051504 0.22069967 0.93400007 -3.3471456e+38
0.048833974 0.22069964 0.93400002 -3.3069562e+38
0.050724857 0.22117226 0.93600011 -3.3467813e+38
0.052679464 0.22188115 0.93900007 -3.3999511e+38
0.054645523 0.22259001 0.94199997 nan
0.056982487 0.22471671 0.95100003 nan
0.058797419 0.22471671 0.95100003 nan
-0.0065465495 0.22677568 0.95200008 nan
-0.0047297291 0.22677563 0.95200008 nan
-0.0029037334 0.22606102 0.94900006 nan
-0.0010834262 0.22415535 0.94100004 nan
0.00071168318 0.22391711 0.94000006 nan
0.0025029425 0.22367892 0.93900007 nan
0.0042949468 0.22367893 0.93900007 nan
0.0060870033 0.22367895 0.93900007 nan
0.007879002 0.22367892 0.93900007 nan
0.0096710045 0.22367893 0.93900007 nan
0.011463063 0.22367895 0.93900007 nan
0.013255058 0.22367892 0.93900007 nan
0.015031023 0.22344071 0.93800002 nan
0.016821122 0.22344072 0.93800002 nan
0.018611228 0.22344074 0.93800002 nan
0.020379601 0.22320251 0.93700004 -3.4004717e+38
0.022167793 0.22320253 0.9370001 -3.3737829e+38
0.023930458 0.22296432 0.93600011 -3.3470941e+38
0.025744179 0.22320251 0.93700004 -3.3204053e+38
0.027532393 0.22320253 0.93700004 -3.2937165e+38
0.029320614 0.22320256 0.9370001 -3.2670277e+38
0.031108817 0.22320253 0.93700004 -3.2670277e+38
0.032897025 0.2232025 0.93700004 -3.2670281e+38
0.034685187 0.22320254 0.93700004 -3.200306e+38
0.036473393 0.22320253 0.93700004 -3.1469284e+38
0.038220808 0.22296432 0.93600011 -3.1736168e+38
0.040007077 0.22296433 0.93600011 -3.1602724e+38
0.041748762 0.22272608 0.93500012 -3.1202392e+38
0.043533087 0.22272608 0.93500006 -3.0669131e+38
0.045365959 0.22296429 0.93600011 -3.0669131e+38
0.047152251 0.2229643 0.93600011 -3.0402764e+38
0.048938543 0.22296432 0.93600011 -3.0936017e+38
0.050779045 0.22320253 0.9370001 -3.1467712e+38
0.052735582 0.22391716 0.94000012 -3.2266296e+38
0.054645501 0.22439355 0.94200003 -3.306592e+38
0.056982495 0.22653747 0.95100003 nan
0.058797419 0.22653742 0.95100003 nan
-0.006539708 0.22835821 0.95100003 nan
-0.0047247838 0.22835821 0.95100009 nan
-0.0028975904 0.22739771 0.94700003 nan
-0.001082249 0.22571687 0.94000006 nan
0.00071093813 0.22547673 0.93900013 nan
0.0025029108 0.22547677 0.93900013 -3.3337497e+38
0.004294958 0.22547674 0.93900007 -3.2937165e+38
0.0060869623 0.22547676 0.93900007 -3.2670277e+38
0.0078790057 0.22547673 0.93900007 -3.2004097e+38
0.0096710157 0.22547674 0.93900007 -3.1870653e+38
0.011463007 0.22547671 0.93900007 -3.1737209e+38
0.013240917 0.22523659 0.93800002 -3.1336877e+38
0.01503103 0.22523656 0.93800008 -3.1069988e+38
0.016839089 0.22547671 0.93900007 -3.08031e+38
0.018670766 0.22595698 0.94100004 -3.1602724e+38
0.020488402 0.22619712 0.94200003 -3.0935504e+38
0.0222861 0.22619711 0.94200003 -3.0668616e+38
0.024083866 0.22619708 0.94200003 -3.0001395e+38
0.025881609 0.22619709 0.94200003 -3.0401728e+38
0.027649974 0.22595696 0.94100004 -3.0402768e+38
0.029414533 0.22571683 0.94000006 -3.013588e+38
0.031208435 0.22571687 0.94000006 -2.946866e+38
0.033002384 0.22571686 0.94000006 -2.9868992e+38
0.034796298 0.22571686 0.94000006 -2.9867951e+38
0.036590219 0.22571683 0.94000006 -2.9601063e+38
0.038343303 0.22547674 0.93900007 -2.9735548e+38
0.040092565 0.22523661 0.93800008 -2.946866e+38
0.041882671 0.22523662 0.93800002 -2.9335212e+38
0.04367277 0.22523662 0.93800002 -2.9335212e+38
0.045462906 0.22523661 0.93800002 -2.9335212e+38
0.047303408 0.22547674 0.93900007 -2.9202285e+38
0.049095437 0.22547674 0.93900007 -2.9601576e+38
0.050887465 0.22547671 0.93900007 -2.9868465e+38
0.052791685 0.22595701 0.94100004 -3.1066344e+38
0.054645501 0.22619709 0.94200003 -3.2665591e+38
0.05698251 0.22835822 0.95100009 -3.3732101e+38
0.058797397 0.22835827 0.95100003 nan
-0.0065328367 0.22993697 0.95000005 nan
-0.0047198143 0.22993697 0.95000005 -3.2665066e+38
-0.0028945468 0.22896877 0.94600004 -3.2266296e+38
-0.0010833703 0.22775862 0.94100004 -3.1467193e+38
0.00071167201 0.22751655 0.94000006 -3.1601678e+38
0.0025056209 0.22751652 0.94000006 -3.1202907e+38
0.0043041203 0.22775862 0.94100004 -3.0135876e+38
0.0060999375 0.22775862 0.94100004 -3.0135876e+38
0.0078957509 0.22775857 0.94100004 -3.0002432e+38
0.0097019169 0.22800061 0.94200003 -3.0002436e+38
0.011499679 0.2280006 0.94200003 -3.013588e+38
0.013283258 0.22775862 0.94100004 -3.0002436e+38
0.015079157 0.2277586 0.94100004 -2.9735548e+38
0.016874967 0.22775862 0.94100004 -2.9602104e+38
0.018710451 0.22824264 0.94299996 -2.946866e+38
0.020488398 0.22800066 0.94200003 -2.946866e+38
0.022333426 0.22848469 0.94400007 -2.9335216e+38
0.024160562 0.22872677 0.94500005 -2.9601063e+38
0.025936557 0.22848466 0.94400007 -2.9201772e+38
0.027708726 0.2282427 0.94300002 -2.8934884e+38
0.029477088 0.22800061 0.94200003 -2.8934884e+38
0.031274863 0.22800063 0.94200003 -2.9068328e+38
0.033072583 0.22800063 0.94199997 -2.8667995e+38
0.034870327 0.2280006 0.94200003 -2.8667995e+38
0.036706977 0.22824265 0.94299996 -2.8534551e+38
0.038424991 0.22775857 0.94100004 -2.9067802e+38
0.040178098 0.22751653 0.94000006 -2.8667991e+38
0.041972011 0.22751655 0.94000006 -2.8534547e+38
0.043765947 0.22751656 0.94000006 -2.8667991e+38
0.045608327 0.22775857 0.94100004 -2.8801435e+38
0.04740417 0.22775859 0.94100004 -2.8801953e+38
0.049199998 0.22775859 0.94100004 -2.9335729e+38
0.051050045 0.22800061 0.94200003 -2.9601576e+38
0.052903853 0.2282427 0.94300002 -3.0666007e+38
0.054819554 0.22872677 0.94500005 -3.2398699e+38
0.05704245 0.23042095 0.95200002 -3.3198327e+38
0.059353895 0.23235734 0.9600001 nan
0.061504647 0.23356752 0.96500003 nan
0.063346304 0.23356752 0.96500003 nan
-0.0065259691 0.2315118 0.94900006 -3.345896e+38
-0.0047148392 0.23151183 0.94900006 -3.1731996e+38
-0.0028976277 0.23102391 0.94700003 -3.0533083e+38
-0.0010868628 0.23029207 0.94400007 -3.013275e+38
0.0007139463 0.23004812 0.94299996 -2.9866903e+38
0.0025136117 0.23004809 0.94300002 -2.9201246e+38
0.004308695 0.22980417 0.94200003 -2.9201246e+38
0.0061128717 0.23004811 0.94300002 -2.8934879e+38
0.007912552 0.23004812 0.94299996 -2.9068324e+38
0.009722529 0.23029204 0.94400007 -2.9068324e+38
0.011524027 0.23029207 0.94400007 -2.8667995e+38
0.013325611 0.2302921 0.94400007 -2.8667995e+38
0.015111154 0.23004811 0.94299996 -2.8933843e+38
0.01691079 0.23004812 0.94299996 -2.8933324e+38
0.018710481 0.23004809 0.94300002 -2.8666955e+38
0.020575343 0.23077998 0.94600004 -2.8666955e+38
0.022404401 0.23102397 0.94700003 -2.8800399e+38
0.024211658 0.23102395 0.94700003 -2.8400067e+38
0.026018975 0.23102392 0.94700003 -2.8266623e+38
0.027796863 0.23077996 0.94600004 -2.8400067e+38
0.029570973 0.23053601 0.94500005 -2.8666434e+38
0.031374425 0.23053601 0.94500005 -2.8400067e+38
0.033142813 0.23029205 0.94400007 -2.8534026e+38
0.0349814 0.23053604 0.94500011 -2.8532464e+38
0.036784843 0.23053604 0.94500005 -2.839902e+38
0.038547471 0.23029208 0.94400007 -2.8799352e+38
0.040306285 0.23004812 0.94299996 -2.8665908e+38
0.042105958 0.23004809 0.94300002 -2.8267138e+38
0.043859057 0.22980419 0.94200003 -2.8133694e+38
0.045656823 0.22980416 0.94200003 -2.8267138e+38
0.047454529 0.22980416 0.94199997 -2.8267136e+38
0.049252272 0.22980419 0.94200003 -2.8800912e+38
0.05110424 0.23004811 0.94300002 -2.90678e+38
0.052959934 0.23029205 0.94400007 -3.0265675e+38
0.054819524 0.23053607 0.94500005 -3.1865963e+38
0.057042435 0.23224366 0.95200008 -3.2931958e+38
0.058859266 0.23224366 0.95200002 nan
0.06131345 0.23468322 0.96200007 nan
0.063543215 0.23614693 0.96800011 nan
-0.0065671839 0.23480399 0.95500004 -3.3191032e+38
-0.0047446005 0.23480394 0.9550001 -3.0930813e+38
-0.0029098578 0.23382056 0.95100003 -2.9598974e+38
-0.0010903124 0.23283705 0.94700003 -2.9199683e+38
0.000715442 0.23234531 0.94500005 -2.9066238e+38
0.0025189184 0.23234528 0.94500005 -2.8934356e+38
0.0043223761 0.23234534 0.94500011 -2.8800914e+38
0.0061323177 0.23259114 0.94600004 -2.8534026e+38
0.0079377126 0.23259114 0.94600004 -2.8534026e+38
0.0097533967 0.23283704 0.94700003 -2.8134215e+38
0.011560699 0.23283705 0.94700003 -2.8000771e+38
0.013367949 0.23283705 0.94700003 -2.8266619e+38
0.015175207 0.23283704 0.94700003 -2.8131617e+38
0.016964601 0.23259118 0.94600004 -2.8798837e+38
0.018750159 0.23234531 0.94500005 -2.8398505e+38
0.020575358 0.23259114 0.94599998 -2.8265061e+38
0.022404371 0.23283707 0.94700003 -2.8398507e+38
0.024288358 0.23357463 0.95000005 -2.8265065e+38
0.026101356 0.23357463 0.95000005 -2.8398509e+38
0.027884988 0.23332876 0.94900006 -2.8398507e+38
0.029664813 0.23308294 0.94800013 -2.8264542e+38
0.031474017 0.23308289 0.94800007 -2.8531428e+38
0.033248134 0.23283704 0.94700003 -2.8531424e+38
0.035055384 0.23283702 0.94700003 -2.8264016e+38
0.036901593 0.23308291 0.94800007 -2.8130572e+38
0.038669974 0.23283704 0.94700003 -2.8397461e+38
0.040434487 0.23259118 0.94600004 -2.8264536e+38
0.042195231 0.23234531 0.94500005 -2.8531424e+38
0.043998726 0.23234528 0.94500005 -2.839902e+38
0.045802176 0.23234534 0.94500005 -2.8265576e+38
0.047605619 0.23234534 0.94500005 -2.8534026e+38
0.049409129 0.23234531 0.94500005 -2.8534024e+38
0.051266775 0.23259112 0.94600004 -2.8934356e+38
0.053128272 0.23283705 0.94700003 -3.0266197e+38
0.05499357 0.23308292 0.94800007 -3.1599075e+38
0.057222217 0.23480396 0.95500004 -3.2799035e+38
0.058859259 0.23406637 0.95200002 -3.3865551e+38
0.061504662 0.23726267 0.96500003 nan
0.063674524 0.23849198 0.97000003 nan
-0.0075780582 0.27305648 1.102 -3.3986489e+38
-0.0054749604 0.27305645 1.102 -3.1727832e+38
-0.0029098596 0.23564127 0.95099998 -2.9863779e+38
-0.0010949317 0.23564129 0.95100003 -2.9198642e+38
0.00071770698 0.23489794 0.94800007 -2.879831e+38
0.0025268663 0.23489793 0.94800007 -2.8931754e+38
0.0043406878 0.2351457 0.94900006 -2.8532464e+38
0.006151801 0.23514572 0.94900012 -2.8532464e+38
0.0079712961 0.23539346 0.95000005 -2.8531424e+38
0.0097842719 0.23539346 0.95000005 -2.839902e+38
0.011597292 0.23539346 0.95000005 -2.7998688e+38
0.013410272 0.23539351 0.95000005 -2.8265061e+38
0.015223293 0.23539351 0.95000005 -2.8131617e+38
0.017036317 0.23539351 0.95000005 -2.8531428e+38
0.0188295 0.23514569 0.94900006 -2.826454e+38
0.020640573 0.23514572 0.94900006 -2.8264025e+38
0.022451678 0.23514569 0.94900006 -2.8264025e+38
0.024288373 0.23539352 0.95000005 -2.8663314e+38
0.026101401 0.23539349 0.95000011 -2.852987e+38
0.027973173 0.23588902 0.95200002 -2.8529866e+38
0.029758682 0.23564127 0.95100003 -2.8529866e+38
0.031573609 0.23564127 0.95100003 -2.8529866e+38
0.033388555 0.23564129 0.95100003 -2.8662785e+38
0.035166413 0.23539348 0.95000005 -2.8529341e+38
0.036979467 0.23539346 0.95000005 -2.8795188e+38
0.038751647 0.23514569 0.94900006 -2.8529341e+38
0.040520012 0.23489791 0.94800007 -2.8663306e+38
0.042284541 0.23465016 0.94699997 -2.8531424e+38
0.044091828 0.23465014 0.94700003 -2.839798e+38
0.045947589 0.23489794 0.94800007 -2.839902e+38
0.047756776 0.23489794 0.94800007 -2.8265576e+38
0.049565963 0.23489794 0.94800007 -2.8665908e+38
0.051429354 0.23514572 0.94900006 -2.8932796e+38
0.053296536 0.23539352 0.95000005 -2.973242e+38
0.055167578 0.2356413 0.95100003 -3.1465635e+38
0.057342038 0.23712793 0.95700008 -3.2532147e+38
0.059168398 0.23712793 0.95700008 -3.3598663e+38
0.061568365 0.23935798 0.96600002 nan
0.063740149 0.24059692 0.97100008 nan
-0.0075780898 0.27516633 1.102 nan
-0.00292206 0.23846081 0.95500004 -3.0263071e+38
-0.0010994785 0.23846078 0.9550001 -2.9464488e+38
0.00072076917 0.23771173 0.95200002 -2.9064155e+38
0.0025375858 0.23771168 0.95200008 -2.8929671e+38
0.0043544173 0.23771167 0.95200002 -2.879675e+38
0.0061712135 0.23771171 0.95200008 -2.8796229e+38
0.0079880822 0.23771168 0.95200008 -2.8528826e+38
0.0098048691 0.23771167 0.95200008 -2.8663306e+38
0.011621712 0.23771173 0.95200002 -2.8264014e+38
0.013438581 0.2377117 0.95200002 -2.8131096e+38
0.015255367 0.23771167 0.95200002 -2.826454e+38
0.017072206 0.23771173 0.95200002 -2.8396422e+38
0.01888903 0.23771168 0.95200008 -2.8529866e+38
0.020705862 0.23771168 0.95200002 -2.8262982e+38
0.022522679 0.23771173 0.95200002 -2.8262982e+38
0.024339525 0.23771168 0.95200008 -2.839486e+38
0.026156357 0.23771168 0.95200002 -2.8395382e+38
0.027973177 0.23771173 0.95200002 -2.8528826e+38
0.029790023 0.2377117 0.95200008 -2.8261938e+38
0.031573616 0.23746204 0.95100003 -2.8261938e+38
0.033388525 0.23746207 0.95100003 -2.8795188e+38
0.035203442 0.23746203 0.95100003 -2.8394856e+38
0.036979452 0.23721236 0.95000005 -2.8394856e+38
0.038751602 0.23696266 0.94900006 -2.8661744e+38
0.04051999 0.23671295 0.94800013 -2.8662785e+38
0.042329207 0.23671296 0.94800007 -2.879675e+38
0.044138372 0.2367129 0.94800007 -2.8663306e+38
0.045947567 0.23671296 0.94800013 -2.8531424e+38
0.04780712 0.23696263 0.94900006 -2.839798e+38
0.049618229 0.23696265 0.94900006 -2.8665906e+38
0.051429354 0.23696262 0.94900006 -2.8932794e+38
0.053296544 0.23721233 0.95000005 -2.973242e+38
0.055225596 0.23771174 0.95200008 -3.0931859e+38
0.05734203 0.23896018 0.95700008 -3.2265259e+38
0.059663013 0.24095777 0.96500003 -3.3865551e+38
0.061504669 0.24095777 0.96500003 nan
0.063740149 0.24245602 0.97100008 nan
-0.0029220469 0.24028926 0.95500004 -3.0528917e+38
-0.0010994952 0.24028924 0.95500004 -2.9196559e+38
0.00072077475 0.23953435 0.95200002 -2.8929671e+38
0.002537569 0.23953438 0.95200008 -2.8796227e+38
0.0043544043 0.23953438 0.95200002 -2.9063117e+38
0.0061712246 0.23953435 0.95200008 -2.8528826e+38
0.0079880636 0.23953439 0.95200008 -2.8795192e+38
0.0097945463 0.23928282 0.95100003 -2.8262455e+38
0.011609478 0.23928282 0.95100003 -2.8395382e+38
0.013424447 0.23928282 0.95100003 -2.8262978e+38
0.015255349 0.23953438 0.95200002 -2.8396422e+38
0.017072218 0.23953435 0.95200008 -2.8529866e+38
0.018869175 0.23928282 0.95100003 -2.839486e+38
0.020684091 0.23928279 0.95100003 -2.8261938e+38
0.022499016 0.23928279 0.95100003 -2.8127976e+38
0.024339532 0.23953441 0.95200008 -2.839486e+38
0.026156342 0.23953439 0.95200002 -2.839486e+38
0.027973188 0.23953435 0.95200008 -2.8661748e+38
0.029789997 0.23953441 0.95200008 -2.8928637e+38
0.031573616 0.23928283 0.95100003 -2.8661748e+38
0.033493891 0.24003765 0.95400006 -2.8661746e+38
0.035314515 0.24003765 0.95400006 -2.8394856e+38
0.03709624 0.239786 0.95300007 -2.8661744e+38
0.038874149 0.23953436 0.95200008 -2.85283e+38
0.0406482 0.23928285 0.95100003 -2.8661744e+38
0.042418472 0.23903117 0.95000005 -2.8796229e+38
0.044278055 0.23928282 0.95100003 -2.8930194e+38
0.04609298 0.23928276 0.95100003 -2.8663306e+38
0.047958285 0.23953441 0.95200002 -2.8531424e+38
0.049775146 0.23953438 0.95200002 -2.8531422e+38
0.051591933 0.23953436 0.95200002 -2.8664866e+38
0.053408764 0.23953435 0.95200002 -2.9731899e+38
0.055283636 0.23978606 0.95300007 -3.0664967e+38
0.057342023 0.24079244 0.95700008 -3.2131815e+38
0.059168383 0.24079242 0.95700008 -3.35971e+38
0.061568387 0.24305695 0.96600002 nan
0.063740164 0.24431504 0.97100008 nan
0.080975302 0.27098584 1.077 nan
-0.0011041071 0.24313176 0.95900005 -2.9463447e+38
0.00072306208 0.24211764 0.95500004 -2.9329484e+38
0.0025456194 0.24211769 0.95500004 -2.8795188e+38
0.0043635666 0.24186414 0.954 -2.8662785e+38
0.0061777215 0.24161059 0.95300007 -2.866227e+38
0.0079964604 0.24161059 0.95300007 -2.9196046e+38
0.0098049212 0.24135706 0.95200008 -2.866227e+38
0.011633953 0.24161063 0.95300001 -2.8395386e+38
0.013452685 0.24161063 0.95300007 -2.8395386e+38
0.015287442 0.24186417 0.95400006 -2.8395386e+38
0.01710807 0.24186414 0.95400006 -2.8528826e+38
0.018908901 0.24161063 0.95300007 -2.8261938e+38
0.020727633 0.24161059 0.95300007 -2.8528304e+38
0.022546364 0.24161059 0.95300007 -2.8528304e+38
0.024390666 0.24186414 0.95400006 -2.839486e+38
0.026211293 0.24186413 0.954 -2.839486e+38
0.028031958 0.24186414 0.95400006 -2.8261416e+38
0.02985259 0.24186417 0.95400006 -2.8795192e+38
0.031673267 0.24186414 0.95400006 -2.839486e+38
0.033493862 0.24186411 0.95400006 -2.8528304e+38
0.035425559 0.24262469 0.95700002 -2.85283e+38
0.037212998 0.24237119 0.95600009 -2.8795188e+38
0.038996667 0.24211764 0.95500004 -2.85283e+38
0.040776461 0.24186411 0.954 -2.8795188e+38
0.042552494 0.24161059 0.95300007 -2.8529341e+38
0.044371225 0.24161059 0.95300007 -2.8662785e+38
0.046238385 0.24186416 0.954 -2.8663306e+38
0.048059046 0.24186411 0.95400006 -2.8531424e+38
0.04987967 0.24186416 0.95400006 -2.8397978e+38
0.051646143 0.24161062 0.95300007 -2.8531941e+38
0.053464882 0.24161062 0.95300007 -2.9331046e+38
0.055283614 0.24161062 0.95300007 -3.0531523e+38
0.057401925 0.24287823 0.95800006 -3.1998371e+38
0.059230238 0.24287827 0.95800006 -3.3597621e+38
0.061632104 0.24515997 0.96700007 nan
0.063805841 0.24642761 0.97200006 nan
-0.0011087507 0.24598962 0.96300012 -2.9862739e+38
0.00072528422 0.24471241 0.958 -2.9460847e+38
0.0025535487 0.24471241 0.95800006 -2.9328969e+38
0.0043727029 0.24420151 0.95600009 -2.8928632e+38
0.0061907303 0.24394608 0.95500004 -2.8662268e+38
0.0080133136 0.24394605 0.95500004 -2.8795718e+38
0.00983583 0.24394608 0.95500004 -2.8528828e+38
0.011658413 0.24394603 0.95500004 -2.8395386e+38
0.013495034 0.24420148 0.95600003 -2.8261942e+38
0.015335461 0.24445695 0.95700002 -2.8395386e+38
0.017161859 0.2444569 0.95700008 -2.852883e+38
0.018968413 0.24420154 0.95600009 -2.8528304e+38
0.020771174 0.24394608 0.95500004 -2.8261416e+38
0.022593727 0.24394606 0.95500004 -2.8528304e+38
0.024441769 0.24420156 0.95600009 -2.839486e+38
0.026266238 0.24420151 0.95600009 -2.8261416e+38
0.028120095 0.24445692 0.95700008 -2.8528304e+38
0.029977737 0.24471241 0.95800006 -2.8661748e+38
0.03177283 0.24445696 0.95700008 -2.8661748e+38
0.03359919 0.24445695 0.95700002 -2.8528304e+38
0.035425551 0.24445695 0.95700002 -2.8795192e+38
0.037251949 0.2444569 0.95700008 -2.8795188e+38
0.039037466 0.24420151 0.95600009 -2.852882e+38
0.040819243 0.24394608 0.95500004 -2.8662785e+38
0.042597115 0.24369065 0.95400006 -2.8662785e+38
0.044417739 0.24369064 0.954 -2.8929673e+38
0.04623843 0.24369065 0.95400006 -2.879675e+38
0.048059031 0.24369064 0.954 -2.8397978e+38
0.049879715 0.24369065 0.95400006 -2.8397978e+38
0.051646151 0.2434352 0.95300007 -2.8532462e+38
0.05346489 0.2434352 0.95300007 -2.9199685e+38
0.055283651 0.2434352 0.95300007 -3.0531523e+38
0.057401963 0.2447124 0.95800006 -3.1864927e+38
0.059724808 0.2467559 0.96600002 -3.3197289e+38
0.061568402 0.2467559 0.96600002 nan
0.063805826 0.24828857 0.97200006 nan
-0.0011098683 0.24809067 0.96400005 -3.0128584e+38
0.00072609633 0.24680389 0.95900011 -2.9594812e+38
0.002553599 0.2465466 0.95800006 -2.9462413e+38
0.0043772701 0.24628918 0.95700002 -2.9062077e+38
0.0061971899 0.24603185 0.95600009 -2.9063117e+38
0.0080216099 0.24603188 0.95600009 -2.866227e+38
0.0098461043 0.24603185 0.95600003 -2.7995053e+38
0.011670558 0.24603185 0.95600009 -2.7994534e+38
0.013509093 0.24628919 0.95700008 -2.8261942e+38
0.015335454 0.24628919 0.95700008 -2.8661233e+38
0.017161859 0.24628921 0.95700008 -2.8527789e+38
0.018968394 0.24603187 0.95600009 -2.8528304e+38
0.020792881 0.24603182 0.95600003 -2.8528304e+38
0.02259372 0.24577451 0.9550001 -2.8261416e+38
0.024441784 0.24603185 0.95600009 -2.8261416e+38
0.026266268 0.24603187 0.95600009 -2.8795192e+38
0.028149469 0.2465466 0.95800006 -2.8661748e+38
0.030009089 0.24680389 0.95900005 -2.8261416e+38
0.031806052 0.2465466 0.95800006 -2.839486e+38
0.033634298 0.24654657 0.95800006 -2.8528304e+38
0.035425551 0.24628919 0.95700002 -2.8528304e+38
0.037251949 0.24628921 0.95700008 -2.8394856e+38
0.039037496 0.24603188 0.95600009 -2.8395897e+38
0.040904671 0.24628919 0.95700008 -2.8529341e+38
0.042686403 0.24603188 0.95600009 -2.8395897e+38
0.044510871 0.24603182 0.95600009 -2.8529862e+38
0.046286903 0.24577451 0.95500004 -2.8530379e+38
0.048059076 0.24551713 0.95400006 -2.8531422e+38
0.0498797 0.24551718 0.95400006 -2.8664866e+38
0.051700354 0.24551713 0.95400006 -2.8665906e+38
0.053520992 0.24551718 0.95400006 -2.9333129e+38
0.055341609 0.24551716 0.954 -3.0131712e+38
0.057461873 0.24680392 0.95900005 -3.1731481e+38
0.059786648 0.24886274 0.96700013 -3.2798514e+38
0.061632119 0.24886274 0.96700007 nan
0.063740171 0.24989215 0.97100008 nan
-0.0011133309 0.25071412 0.96700007 -3.0394432e+38
0.00072756037 0.24915855 0.96100003 -2.9196042e+38
0.0025589392 0.24889925 0.96000004 -2.9062081e+38
0.0043864213 0.24863999 0.95900005 -2.8928632e+38
0.0062166285 0.24863994 0.95900011 -2.8662785e+38
0.0080468189 0.24863999 0.95900005 -2.866227e+38
0.0098770019 0.24864003 0.95900011 -2.8661748e+38
0.011707211 0.24863997 0.95900011 -2.8795192e+38
0.013537383 0.24863997 0.95900005 -2.8528304e+38
0.015367573 0.24864 0.95900005 -2.8661748e+38
0.017215686 0.24889924 0.96000004 -2.8661748e+38
0.019047821 0.24889928 0.96000004 -2.8261416e+38
0.020858141 0.24863999 0.95900005 -2.8394856e+38
0.022688357 0.24864 0.95900011 -2.8661744e+38
0.024518518 0.24863997 0.95900011 -2.8793105e+38
0.026348697 0.24864 0.95900011 -2.9060515e+38
0.02823765 0.24915856 0.96100003 -2.8394339e+38
0.030071659 0.24915852 0.96100003 -2.839486e+38
0.031905636 0.24915853 0.96100003 -2.839486e+38
0.033704571 0.24889927 0.96000004 -2.8661748e+38
0.035536654 0.24889925 0.96000004 -2.8661748e+38
0.037329815 0.24863997 0.95900005 -2.8528304e+38
0.039119139 0.24838078 0.95800006 -2.8262453e+38
0.040904701 0.24812144 0.95700008 -2.852882e+38
0.042775676 0.24838075 0.958 -2.8129009e+38
0.0445574 0.24812149 0.95700008 -2.8662785e+38
0.04633534 0.24786216 0.95600009 -2.8396418e+38
0.048109472 0.24760295 0.95500004 -2.8131092e+38
0.049879707 0.24734363 0.95400006 -2.8264536e+38
0.051700331 0.24734366 0.95400006 -2.8931756e+38
0.053577125 0.24760294 0.95500004 -2.8932796e+38
0.055399671 0.24760294 0.95500004 -2.9465532e+38
0.057521813 0.24889922 0.96000004 -3.1464595e+38
0.05935391 0.24889921 0.96000004 -3.2798514e+38
0.061632097 0.25071418 0.96700007 -3.3865547e+38
0.063740164 0.25175124 0.97100008 nan
-0.0011179112 0.25361031 0.97100008 -3.0662361e+38
0.00072909333 0.25152078 0.96300012 -2.9063117e+38
0.0025642458 0.25125965 0.96200007 -2.8928637e+38
0.004395606 0.25099838 0.96100003 -2.8928632e+38
0.0062295999 0.25099841 0.96100003 -2.8529341e+38
0.0080636237 0.25099838 0.96100003 -2.839538e+38
0.0098975729 0.25099838 0.96100003 -2.8928637e+38
0.011731608 0.25099838 0.96100008 -2.8661746e+38
0.013551502 0.25073725 0.96000004 -2.8661748e+38
0.015399588 0.25099841 0.96100003 -2.8528304e+38
0.017251583 0.25125962 0.96200013 -2.8795192e+38
0.019087484 0.25125965 0.96200013 -2.8795188e+38
0.020923378 0.25125965 0.96200013 -2.85283e+38
0.022759316 0.25125965 0.96200013 -2.8928111e+38
0.024595207 0.25125962 0.96200013 -2.8793105e+38
0.026431097 0.25125962 0.96200013 -2.8793627e+38
0.028267032 0.25125965 0.96200013 -2.8660185e+38
0.030134244 0.25152084 0.96300012 -2.8661229e+38
0.031972021 0.25152081 0.96300006 -2.8528304e+38
0.033774778 0.25125962 0.96200007 -2.8528304e+38
0.035610668 0.25125962 0.96200013 -2.8661748e+38
0.037407689 0.25099841 0.96100003 -2.8261416e+38
0.039200842 0.25073725 0.96000004 -2.8261412e+38
0.040990196 0.25047603 0.95900005 -2.8394858e+38
0.042775698 0.25021493 0.95800006 -2.8394856e+38
0.044557407 0.24995369 0.95700002 -2.8262453e+38
0.046335317 0.2496925 0.95600003 -2.8396418e+38
0.048109449 0.24943134 0.95500004 -2.8263493e+38
0.049879692 0.24917014 0.95400006 -2.839798e+38
0.051700316 0.24917018 0.954 -2.8531424e+38
0.05357711 0.24943137 0.95500004 -2.8665908e+38
0.055399664 0.24943137 0.95500004 -2.9598976e+38
0.05746191 0.25047606 0.95900011 -3.1198747e+38
0.059724845 0.25230435 0.96600002 -3.266507e+38
0.061568394 0.25230438 0.96600002 -3.3864507e+38
0.063740179 0.25361028 0.97100008 nan
-0.0011202525 0.25599554 0.97300005 -3.0929249e+38
0.00073666312 0.25599557 0.97300005 -2.959741e+38
0.0025642496 0.25310144 0.96200007 -2.9328965e+38
0.0043956023 0.25283831 0.96100003 -2.9061555e+38
0.0062296037 0.25283837 0.96100003 -2.8795708e+38
0.00806362 0.25283831 0.96100003 -2.8795708e+38
0.0098976213 0.25283834 0.96100003 -2.8795188e+38
0.0117194 0.25257522 0.9600001 -2.85283e+38
0.013551524 0.25257522 0.96000004 -2.839486e+38
0.015399592 0.25283834 0.96100003 -2.8661748e+38
0.017251579 0.25310141 0.96200013 -2.8661748e+38
0.019087439 0.25310144 0.96200007 -2.8661746e+38
0.020923374 0.25310144 0.96200013 -2.8927071e+38
0.022735639 0.25283837 0.96100003 -2.8793627e+38
0.024569659 0.25283831 0.96100003 -2.9060515e+38
0.026403634 0.25283834 0.96100003 -2.8793627e+38
0.028267039 0.25310141 0.96200013 -2.8793629e+38
0.030134214 0.25336453 0.96300006 -2.8660187e+38
0.031972058 0.25336453 0.96300006 -2.8528304e+38
0.033774778 0.25310141 0.96200013 -2.8528304e+38
0.035610698 0.25310147 0.96200013 -2.839486e+38
0.037407681 0.25283834 0.96100003 -2.8261416e+38
0.03920085 0.25257525 0.96000004 -2.8261416e+38
0.040990196 0.25231215 0.95900011 -2.8395897e+38
0.04277572 0.25204903 0.95800006 -2.8395897e+38
0.044557422 0.25178593 0.95700002 -2.8396418e+38
0.04633534 0.25152287 0.95600009 -2.8262974e+38
0.048210196 0.25178593 0.95700008 -2.8131092e+38
0.050036535 0.25178593 0.95700008 -2.8264536e+38
0.051808722 0.25152281 0.95600009 -2.839798e+38
0.053689271 0.25178596 0.95700008 -2.8932275e+38
0.055573657 0.25204903 0.95800006 -2.9732422e+38
0.057581715 0.25283834 0.96100003 -3.1198747e+38
0.059415706 0.25283831 0.96100003 -3.2531626e+38
0.061632112 0.25441694 0.96700007 -3.3863986e+38
0.063740171 0.25546938 0.97100008 nan
0.066403858 0.25862658 0.98300004 nan
0.068279833 0.25862652 0.98300004 nan
0.0007306058 0.25573832 0.96500003 -2.959637e+38
0.0025669355 0.25520825 0.96300012 -2.9197078e+38
0.0044001509 0.25494328 0.96200013 -2.8795708e+38
0.0062360894 0.25494328 0.96200007 -2.8928632e+38
0.0080719795 0.25494325 0.96200013 -2.852882e+38
0.0099078733 0.25494325 0.96200013 -2.8127968e+38
0.011743812 0.25494325 0.96200007 -2.8261412e+38
0.013565591 0.25467825 0.96100003 -2.8661744e+38
0.015415611 0.25494325 0.96200013 -2.8394856e+38
0.01726949 0.25520831 0.96300006 -2.85283e+38
0.01912717 0.25547329 0.96400005 -2.8793627e+38
0.020945137 0.25520831 0.96300012 -2.8660702e+38
0.022782935 0.25520828 0.96300012 -2.8793625e+38
0.024620777 0.25520828 0.96300012 -2.8927071e+38
0.026458586 0.25520831 0.96300006 -2.8793627e+38
0.028325761 0.25547329 0.96400005 -2.9060515e+38
0.030196814 0.25573829 0.96500009 -2.8660183e+38
0.032038435 0.25573832 0.96500003 -2.8261412e+38
0.033844963 0.25547326 0.96400005 -2.8528302e+38
0.03564769 0.25520831 0.96300006 -2.7994528e+38
0.037485532 0.25520831 0.96300012 -2.839486e+38
0.039241672 0.25467825 0.96100003 -2.8395897e+38
0.04103294 0.25441325 0.96000004 -2.8529341e+38
0.042865023 0.25441325 0.96000004 -2.8262453e+38
0.044650577 0.25414824 0.95900005 -2.8262453e+38
0.046432272 0.25388324 0.95800006 -2.8262974e+38
0.048210181 0.25361815 0.95700002 -2.8264016e+38
0.050141118 0.25414824 0.95900005 -2.8131092e+38
0.051971346 0.25414824 0.95900011 -2.8531424e+38
0.053801522 0.25414827 0.95900011 -2.8798312e+38
0.055631697 0.25414824 0.95900005 -2.9332088e+38
0.057641648 0.25494325 0.96200013 -3.0931859e+38
0.059477538 0.25494322 0.96200013 -3.2265259e+38
0.061695851 0.25653335 0.96800005 -3.3464698e+38
0.063740186 0.25732842 0.97100008 nan
0.066336267 0.26024362 0.98200005 nan
0.068210378 0.26024359 0.98200005 nan
0.00073134899 0.25785279 0.96600008 -2.9862218e+38
0.0025722161 0.25758585 0.96500003 -2.893019e+38
0.0044093151 0.25731891 0.96400005 -2.8929152e+38
0.0062490273 0.25731897 0.96400005 -2.8395897e+38
0.0080803987 0.257052 0.96300006 -2.8527779e+38
0.0099182036 0.257052 0.96300006 -2.85283e+38
0.011756001 0.257052 0.96300012 -2.8795188e+38
0.013593817 0.25705203 0.96300006 -2.85283e+38
0.0154477 0.25731894 0.96400005 -2.8795188e+38
0.017305357 0.25758585 0.96500003 -2.8661744e+38
0.019147014 0.25758585 0.96500003 -2.8660183e+38
0.020988585 0.25758588 0.96500003 -2.8793627e+38
0.022830242 0.25758585 0.96500003 -2.8926547e+38
0.024646321 0.25731894 0.96400011 -2.9060515e+38
0.02651353 0.25758594 0.96500003 -2.8793627e+38
0.028355164 0.25758591 0.96500009 -2.8660181e+38
0.030228103 0.25785285 0.96600002 -2.8794146e+38
0.032104842 0.25811973 0.96700007 -2.85283e+38
0.033915184 0.25785285 0.96600002 -2.8661744e+38
0.035684712 0.25731897 0.96400011 -2.8661748e+38
0.037485503 0.25705206 0.96300012 -2.839486e+38
0.039282516 0.25678512 0.96200013 -2.8129009e+38
0.041075692 0.25651816 0.96100003 -2.8395897e+38
0.042909697 0.25651816 0.96100008 -2.8395897e+38
0.044743679 0.25651813 0.96100003 -2.8395897e+38
0.046577692 0.25651819 0.96100003 -2.8395897e+38
0.048361301 0.25625125 0.96000004 -2.8796748e+38
0.050141148 0.25598425 0.95900005 -2.8664347e+38
0.052025504 0.25625125 0.96000004 -2.8531422e+38
0.053857602 0.25625125 0.96000004 -2.8931756e+38
0.055689707 0.25625122 0.96000004 -2.9198644e+38
0.057641611 0.25678512 0.96200013 -3.0131716e+38
0.059477538 0.25678509 0.96200007 -3.2131815e+38
0.061632127 0.2581197 0.96700007 -3.3331254e+38
0.063740171 0.25918746 0.97100008 nan
0.066336282 0.2621237 0.98200005 nan
0.068210356 0.2621237 0.98200005 nan
0.00073287077 0.26023999 0.96800011 -2.9995662e+38
0.0025748741 0.25970227 0.96600002 -2.9328963e+38
0.0044138785 0.25943348 0.96500009 -2.9062075e+38
0.0062490609 0.25916463 0.96400005 -2.8662785e+38
0.0080887657 0.25916463 0.96400005 -2.8927592e+38
0.0099284705 0.2591646 0.96400005 -2.8795188e+38
0.011768265 0.2591646 0.96400011 -2.8661744e+38
0.01360797 0.25916457 0.96400011 -2.85283e+38
0.015479708 0.25970232 0.96600008 -2.85283e+38
0.017341221 0.25997111 0.96700013 -2.8127968e+38
0.019166833 0.2597023 0.96600008 -2.8660702e+38
0.021010352 0.25970227 0.96600002 -2.8927071e+38
0.022830246 0.25943348 0.96500003 -2.8793627e+38
0.024671903 0.25943348 0.96500003 -2.8927071e+38
0.02651356 0.25943345 0.96500003 -2.8660183e+38
0.028384561 0.25970232 0.96600002 -2.8793625e+38
0.030228073 0.25970227 0.96600002 -2.9193957e+38
0.032104865 0.25997114 0.96700013 -2.8661742e+38
0.033915184 0.25970232 0.96600008 -2.8394858e+38
0.035721712 0.25943348 0.96500003 -2.8528304e+38
0.037524454 0.25916463 0.96400011 -2.8528304e+38
0.039323345 0.25889578 0.96300012 -2.8395382e+38
0.04116112 0.25889575 0.96300006 -2.8528302e+38
0.04299897 0.25889575 0.96300012 -2.852882e+38
0.044836789 0.25889578 0.96300006 -2.8395897e+38
0.046626158 0.25862694 0.96200013 -2.8529341e+38
0.048411682 0.25835806 0.96100003 -2.8663304e+38
0.05024571 0.25835806 0.96100008 -2.8663823e+38
0.052025527 0.25808924 0.96000004 -2.8530901e+38
0.053913698 0.25835806 0.96100003 -2.879831e+38
0.055747733 0.25835806 0.96100003 -2.9332088e+38
0.057701565 0.25889575 0.96300012 -2.9998787e+38
0.059539363 0.25889575 0.96300006 -3.1864925e+38
0.061632097 0.25997108 0.96700007 -3.2931437e+38
0.063740186 0.2610465 0.97100008 nan
0.066268772 0.26373497 0.98100007 nan
0.068140946 0.26373494 0.98100007 nan
0.00073435344 0.26263481 0.97000009 -3.0393913e+38
0.0025801919 0.26209331 0.96800011 -2.9328963e+38
0.0044184607 0.2615518 0.96600002 -2.9195519e+38
0.0062619839 0.2615518 0.96600002 -2.8796229e+38
0.0081055369 0.26155177 0.96600008 -2.9060515e+38
0.0099387672 0.26128104 0.96500003 -2.8661742e+38
0.011780424 0.26128101 0.96500003 -2.8661742e+38
0.013622081 0.26128101 0.96500003 -2.8661742e+38
0.015495723 0.26182249 0.96700007 -2.8261412e+38
0.017359121 0.26209325 0.96800011 -2.85283e+38
0.019186666 0.26182252 0.96700013 -2.8526739e+38
0.021032138 0.26182252 0.96700007 -2.8793627e+38
0.022853887 0.2615518 0.96600008 -2.8793627e+38
0.024697466 0.2615518 0.96600002 -2.8793627e+38
0.026541015 0.26155177 0.96600008 -2.8793627e+38
0.02841392 0.26182252 0.96700013 -2.9060515e+38
0.030259369 0.26182252 0.96700013 -2.9193959e+38
0.032104835 0.26182249 0.96700013 -2.85283e+38
0.033950299 0.26182249 0.96700007 -2.8127968e+38
0.035795726 0.26182255 0.96700007 -2.8394858e+38
0.037602283 0.2615518 0.96600002 -2.8528302e+38
0.039404996 0.26128101 0.96500003 -2.8528302e+38
0.041203894 0.26101023 0.96400011 -2.8528822e+38
0.043043636 0.26101029 0.96400011 -2.8262453e+38
0.044883355 0.26101026 0.96400005 -2.8529341e+38
0.046674594 0.26073954 0.96300012 -2.8529341e+38
0.048512444 0.26073954 0.96300012 -2.8529862e+38
0.050297953 0.26046872 0.96200007 -2.852986e+38
0.052242279 0.26101029 0.96400011 -2.839798e+38
0.054082014 0.26101026 0.96400011 -2.8664866e+38
0.055805728 0.26046872 0.96200013 -2.9332086e+38
0.05764164 0.26046872 0.96200013 -3.0131712e+38
0.059539348 0.26073956 0.96300012 -3.1998886e+38
0.061632082 0.26182252 0.96700007 -3.3065402e+38
0.063674472 0.26263481 0.97000003 nan
0.06620121 0.26534241 0.98000002 nan
0.06807147 0.26534244 0.98000002 nan
0.00073667429 0.26530999 0.97300005 -3.0926647e+38
0.0025882442 0.26476461 0.97100008 -2.9595851e+38
0.0044230055 0.2636739 0.96700007 -2.932792e+38
0.0062684771 0.2636739 0.96700007 -2.892863e+38
0.0081139002 0.2636739 0.96700013 -2.8795186e+38
0.0099491198 0.26340127 0.96600002 -2.8661742e+38
0.011792636 0.26340127 0.96600002 -2.8394854e+38
0.013650319 0.2636739 0.96700013 -2.8661742e+38
0.015511731 0.26394656 0.96800005 -2.8661221e+38
0.017359158 0.26394656 0.96800005 -2.8927588e+38
0.019206492 0.26394659 0.96800005 -2.8660183e+38
0.021032119 0.26367393 0.96700013 -2.8793627e+38
0.022877546 0.2636739 0.96700013 -2.8660183e+38
0.024723014 0.2636739 0.96700013 -2.8393294e+38
0.026568482 0.2636739 0.96700013 -2.8526739e+38
0.028443294 0.26394659 0.96800005 -2.8793627e+38
0.030290669 0.26394659 0.96800011 -2.9060515e+38
0.032138035 0.26394659 0.96800011 -2.8527779e+38
0.033985429 0.26394656 0.96800011 -2.8260891e+38
0.035832763 0.26394659 0.96800011 -2.8394854e+38
0.037680104 0.26394659 0.96800005 -2.8394854e+38
0.039486662 0.2636739 0.96700013 -2.8394856e+38
0.041332133 0.2636739 0.96700013 -2.8528822e+38
0.043132924 0.2634013 0.96600002 -2.8261933e+38
0.044929877 0.26312858 0.96500003 -2.8395897e+38
0.046723098 0.26285592 0.96400005 -2.8395378e+38
0.04856281 0.26285595 0.96400011 -2.8395378e+38
0.050402537 0.26285595 0.96400005 -2.8396418e+38
0.052296489 0.26312858 0.96500003 -2.8396418e+38
0.054138087 0.26312858 0.96500003 -2.8797789e+38
0.055921741 0.26285589 0.96400011 -2.90652e+38
0.057701558 0.26258326 0.96300006 -2.9598976e+38
0.059539378 0.2625832 0.96300012 -3.1331668e+38
0.061632104 0.2636739 0.96700013 -3.2531626e+38
0.06367448 0.26449192 0.97000003 nan
0.06620124 0.26721868 0.98000002 nan
0.06807147 0.26721871 0.98000002 nan
0.00073891692 0.26799661 0.97600007 -3.1193535e+38
0.0026015379 0.26799658 0.97600007 -2.9595851e+38
0.0044275951 0.26579991 0.96800005 -2.9594808e+38
0.0062684957 0.26552531 0.96700013 -2.9328963e+38
0.0081139263 0.26552534 0.96700007 -2.892863e+38
0.0099593494 0.26552528 0.96700013 -2.8795186e+38
0.011804817 0.26552528 0.96700007 -2.8528298e+38
0.0136644 0.26579991 0.96800005 -2.8527777e+38
0.015511772 0.26579991 0.96800005 -2.8927588e+38
0.017359113 0.26579994 0.96800005 -2.8793623e+38
0.019206485 0.26579994 0.96800011 -2.8526737e+38
0.021053864 0.26579991 0.96800005 -2.8659661e+38
0.022901235 0.26579988 0.96800011 -2.8393294e+38
0.024748577 0.26579994 0.96800005 -2.8659661e+38
0.026595952 0.26579991 0.96800011 -2.8659661e+38
0.028472671 0.26607448 0.96900004 -2.8792584e+38
0.030321965 0.26607451 0.96900004 -2.8926026e+38
0.03217122 0.26607448 0.96900004 -2.8792063e+38
0.034020491 0.26607451 0.9690001 -2.8526734e+38
0.035832763 0.26579988 0.96800005 -2.8660179e+38
0.037680112 0.26579988 0.96800005 -2.8927067e+38
0.039527476 0.26579994 0.96800005 -2.8793623e+38
0.041374847 0.26579991 0.96800011 -2.8527256e+38
0.043177582 0.26552534 0.96700013 -2.8260889e+38
0.044929922 0.26497617 0.96500009 -2.826037e+38
0.046771578 0.26497617 0.96500009 -2.8526737e+38
0.048562817 0.26470155 0.96400011 -2.852726e+38
0.050454818 0.26497617 0.96500009 -2.8661744e+38
0.052296475 0.26497617 0.96500009 -2.8662785e+38
0.054194167 0.26525074 0.96600002 -2.8663823e+38
0.055979759 0.2649762 0.96500003 -2.8931233e+38
0.057761461 0.26470155 0.96400011 -2.9332088e+38
0.059601195 0.2647016 0.96400011 -3.0798415e+38
0.061695851 0.26579994 0.96800011 -3.2531626e+38
0.063740171 0.26662368 0.97100008 -3.3864509e+38
0.06620121 0.26909494 0.98000002 nan
0.06807147 0.26909497 0.98000002 nan
0.00074042194 0.2704182 0.97800004 -3.0927168e+38
0.0026068706 0.27041823 0.97800004 -2.9863258e+38
0.0044321436 0.26792967 0.9690001 -2.9328441e+38
0.0062749516 0.2676532 0.96800011 -2.9062075e+38
0.0081222933 0.26765323 0.96800011 -2.8928109e+38
0.0099696536 0.26765317 0.96800011 -2.8928109e+38
0.011817044 0.26765317 0.96800005 -2.8527777e+38
0.013678523 0.26792967 0.96900004 -2.839329e+38
0.015527805 0.26792967 0.96900004 -2.8926026e+38
0.017359098 0.26765323 0.96800011 -2.8659138e+38
0.019206507 0.26765317 0.96800005 -2.8658098e+38
0.021053849 0.2676532 0.96800005 -2.8791544e+38
0.02290122 0.2676532 0.96800011 -2.86581e+38
0.02477414 0.26792967 0.96900004 -2.8791022e+38
0.026650881 0.26820621 0.97000003 -2.9190833e+38
0.028502071 0.26820618 0.97000009 -2.905687e+38
0.03038458 0.26848274 0.97100008 -2.9056868e+38
0.032204449 0.26820621 0.97000003 -2.9190312e+38
0.034055606 0.26820624 0.97000003 -2.8924464e+38
0.035869785 0.26792967 0.96900004 -2.879154e+38
0.037719049 0.2679297 0.9690001 -2.8924984e+38
0.039568335 0.26792967 0.96900004 -2.8657055e+38
0.041374855 0.2676532 0.96800005 -2.8524654e+38
0.043177553 0.26737669 0.96700007 -2.8658098e+38
0.044976488 0.26710021 0.96600002 -2.8124843e+38
0.04682 0.26710021 0.96600002 -2.8525173e+38
0.048613191 0.26682371 0.96500009 -2.8658619e+38
0.050507113 0.26710021 0.96600002 -2.8659661e+38
0.052350655 0.26710021 0.96600002 -2.8527258e+38
0.054306388 0.26765317 0.96800005 -2.8795186e+38
0.056037754 0.26710019 0.96600002 -2.8930711e+38
