# .PCD v0.7 - Point Cloud Data file format
VERSION 0.7
FIELDS x y z rgb
SIZE 4 4 4 4
TYPE F F F F
COUNT 1 1 1 1
WIDTH 1257
HEIGHT 1
VIEWPOINT 0 0 0 1 0 0 0
POINTS 1257
DATA ascii
0.028854685 0.19819987 0.98200011 nan
0.030728767 0.19819985 0.98200005 nan
0.032602817 0.19819988 0.98200011 nan
0.034476906 0.19819993 0.98200011 nan
0.036351025 0.19819987 0.98200011 nan
-0.02229907 0.20517367 1.0070001 nan
-0.020255907 0.20395121 1.0010002 nan
-0.018217258 0.20252496 0.99400002 nan
-0.016254606 0.20170999 0.99000013 nan
-0.014350746 0.20150623 0.98900008 nan
-0.012438107 0.20109873 0.98700011 nan
-0.010543779 0.20089498 0.98600012 nan
-0.0086445138 0.20048749 0.98400003 nan
-0.0067597236 0.20028377 0.98300016 nan
-0.0048836991 0.20028374 0.9830001 nan
-0.0030077007 0.20028377 0.98300016 nan
-0.0011317562 0.20028374 0.9830001 nan
0.00074345805 0.20007999 0.98200011 nan
0.0026175398 0.20007998 0.98200011 nan
0.0044871215 0.19987622 0.98100013 nan
0.0063592587 0.19987625 0.98100007 nan
0.00822304 0.19967251 0.98000008 nan
0.010082962 0.19946876 0.97900009 nan
0.011939151 0.199265 0.9780001 nan
0.013791459 0.1990613 0.97700012 nan
0.015656048 0.19906126 0.97700006 nan
0.017502652 0.19885749 0.97600013 nan
0.019365223 0.1988575 0.97600013 nan
0.021206131 0.19865379 0.97500008 nan
0.023043172 0.19844998 0.97400004 nan
0.024876455 0.19824627 0.97300011 nan
0.026980603 0.20008001 0.98200011 nan
0.028560849 0.19804253 0.97200012 nan
0.030415827 0.19804251 0.97200006 nan
0.032270849 0.19804251 0.97200012 nan
0.034161001 0.1982463 0.97300011 nan
0.036091916 0.19865376 0.97500002 nan
0.037952632 0.19865379 0.97500008 nan
0.039935872 0.19926497 0.9780001 nan
0.042229742 0.2013025 0.98800009 nan
-0.022299089 0.20710169 1.0070001 nan
-0.020255908 0.20586774 1.001 nan
-0.01821726 0.20442803 0.99400008 nan
-0.016254637 0.20360546 0.99000013 nan
-0.014350759 0.20339976 0.98900008 nan
-0.012400277 0.20237148 0.98400003 nan
-0.010511698 0.20216578 0.9830001 nan
-0.0086269621 0.20196013 0.98200011 nan
-0.0067528803 0.20196012 0.98200005 nan
-0.0048737768 0.20175444 0.98100007 nan
-0.0030047186 0.2019601 0.98200011 nan
-0.0011294298 0.20175442 0.98100013 nan
0.00074200891 0.20154878 0.98000008 nan
0.0026122797 0.20154877 0.98000008 nan
0.0044825524 0.20154876 0.98000008 nan
0.0063462872 0.20134315 0.97900009 nan
0.0082062315 0.20113745 0.9780001 nan
0.010062376 0.20093182 0.97700006 nan
0.011914695 0.20072612 0.97600013 nan
0.01377734 0.20072612 0.97600013 nan
0.015623959 0.20052049 0.97500008 nan
0.017484697 0.20052049 0.97500014 nan
0.019325549 0.20031482 0.9740001 nan
0.021162631 0.2001092 0.97300011 nan
0.022995891 0.19990347 0.97200006 nan
0.024825288 0.19969779 0.97100013 nan
0.0266784 0.19969779 0.97100013 nan
0.028531434 0.19969779 0.97100013 nan
0.030353243 0.1994922 0.97000009 nan
0.032237627 0.19969779 0.97100013 nan
0.034090735 0.19969779 0.97100013 nan
0.036054894 0.20031485 0.9740001 nan
0.03791371 0.20031479 0.9740001 nan
0.039894998 0.20093179 0.97700012 nan
0.042187005 0.20298845 0.98700005 nan
-0.022299126 0.20902967 1.0070001 nan
-0.020255884 0.20778418 1.001 nan
-0.018253952 0.20674634 0.99600011 nan
-0.016287494 0.20591599 0.9920001 nan
-0.014350776 0.20529325 0.98900008 nan
-0.012375135 0.20384023 0.98200011 nan
-0.010490295 0.20363262 0.98100013 nan
-0.0086181052 0.20363265 0.98100007 nan
-0.0067390632 0.20342505 0.98000008 nan
-0.0048687924 0.20342503 0.98000008 nan
-0.0029985141 0.20342508 0.98000008 nan
-0.0011282414 0.20342506 0.98000008 nan
0.00074119866 0.20321754 0.97900009 nan
0.0026095528 0.20321748 0.97900009 nan
0.0044733454 0.20300989 0.9780001 nan
0.0063333418 0.20280233 0.97700012 nan
0.008189464 0.20259474 0.97600013 nan
0.010031464 0.20217963 0.9740001 nan
0.011890294 0.20217964 0.9740001 nan
0.013749117 0.20217958 0.9740001 nan
0.015591914 0.20197204 0.97300011 nan
0.017448841 0.20197204 0.97300011 nan
0.019285867 0.20176448 0.97200012 nan
0.021140853 0.20176451 0.97200012 nan
0.022972221 0.20155685 0.97100019 nan
0.024799699 0.20134936 0.97000009 nan
0.026650896 0.20134932 0.97000009 nan
0.02850206 0.2013493 0.97000009 nan
0.030353235 0.20134933 0.97000009 nan
0.032204397 0.20134932 0.97000009 nan
0.034090713 0.20155686 0.97100013 nan
0.036091901 0.20238718 0.97500008 nan
0.037952684 0.2023872 0.97500014 nan
0.039935872 0.20300993 0.9780001 nan
0.042186975 0.20487815 0.98700011 nan
-0.020174919 0.20886268 0.9970001 nan
-0.018272236 0.20886269 0.9970001 nan
-0.016287468 0.20781526 0.9920001 nan
-0.01433621 0.20697731 0.98800009 nan
-0.012349846 0.20530139 0.98000008 nan
-0.010468943 0.20509191 0.97900009 nan
-0.0085917749 0.20488241 0.97800016 nan
-0.0067253225 0.20488235 0.9780001 nan
-0.0048638489 0.20509188 0.97900009 nan
-0.0029924791 0.20488241 0.97800016 nan
-0.0011260211 0.20488241 0.97800016 nan
0.0007404387 0.2048824 0.97800016 nan
0.0026042685 0.2046729 0.97700012 nan
0.0044641905 0.20446339 0.97600019 nan
0.0063138325 0.20404442 0.9740001 nan
0.0081643183 0.20383494 0.97300017 nan
0.0100109 0.20362543 0.97200012 nan
0.011853674 0.20341593 0.97100013 nan
0.013692645 0.20320645 0.97000003 nan
0.015543813 0.20320649 0.97000009 nan
0.017394984 0.20320648 0.97000003 nan
0.019246159 0.20320651 0.97000009 nan
0.021097353 0.20320648 0.97000009 nan
0.02294852 0.20320645 0.97000009 nan
0.024825299 0.20341587 0.97100013 nan
0.026678381 0.2034159 0.97100008 nan
0.028531449 0.20341589 0.97100013 nan
0.030384565 0.2034159 0.97100013 nan
0.032237627 0.20341587 0.97100013 nan
0.034125842 0.2036254 0.97200012 nan
0.036128931 0.20446336 0.97600013 nan
0.037991539 0.20446339 0.97600013 nan
0.039976679 0.20509189 0.97900009 nan
0.042229749 0.20697729 0.98800009 nan
-0.020154726 0.21056014 0.99600011 nan
-0.018253952 0.21056017 0.99600011 nan
-0.016254639 0.20929174 0.99000013 nan
-0.014234629 0.20738903 0.98100007 nan
-0.012324691 0.20675486 0.9780001 nan
-0.01044753 0.20654346 0.97700006 nan
-0.008582985 0.2065434 0.97700012 nan
-0.0067184698 0.20654343 0.97700012 nan
-0.0048489757 0.20633201 0.97600013 nan
-0.0029894002 0.20654346 0.97700012 nan
-0.0011248123 0.20654342 0.97700006 nan
0.00073892623 0.20633203 0.97600013 nan
0.0025989302 0.20612063 0.97500008 nan
0.0044550374 0.20590921 0.9740001 nan
0.0063008834 0.20548643 0.97200012 nan
0.0081474911 0.20527498 0.97100019 nan
0.0099902693 0.2050636 0.97000003 nan
0.011817081 0.20464076 0.96800017 nan
0.01366443 0.20464076 0.96800011 nan
0.01551179 0.20464075 0.96800011 nan
0.017359143 0.20464079 0.96800017 nan
0.019206541 0.20464078 0.96800011 nan
0.021075645 0.20485216 0.9690001 nan
0.022948513 0.2050636 0.97000009 nan
0.024799692 0.20506363 0.97000009 nan
0.026678381 0.20527494 0.97100013 nan
0.028531509 0.20527494 0.97100013 nan
0.030415872 0.20548642 0.97200012 nan
0.032270849 0.20548645 0.97200012 nan
0.034161001 0.2056978 0.97300017 nan
0.036128946 0.206332 0.97600013 nan
0.037991554 0.20633203 0.97600007 nan
0.039976671 0.20696625 0.97900009 nan
0.04218699 0.2086575 0.98700005 nan
-0.020033307 0.21118718 0.99000007 nan
-0.018253934 0.21246707 0.99600011 nan
-0.016106812 0.20926726 0.98100013 nan
-0.014162118 0.2082006 0.97600013 nan
-0.012286859 0.20798734 0.97500014 nan
-0.010415474 0.207774 0.97400016 nan
-0.0085566845 0.20777398 0.9740001 nan
-0.0066978503 0.20777398 0.9740001 nan
-0.0048340391 0.20756066 0.97300011 nan
-0.002977103 0.20756072 0.97300011 nan
-0.0011201724 0.2075607 0.97300011 nan
0.00073670782 0.20756069 0.97300011 nan
0.0025909077 0.20734741 0.97200012 nan
0.0044367239 0.20692074 0.97000003 nan
0.0062814672 0.2067074 0.9690001 nan
0.0081223566 0.20649409 0.96800011 nan
0.0099491086 0.20606741 0.96600008 nan
0.011780431 0.20585412 0.96500003 nan
0.013622114 0.20585413 0.96500003 nan
0.015447663 0.20564081 0.96400011 nan
0.017305346 0.20585415 0.96500003 nan
0.019166822 0.20606746 0.96600008 nan
0.02103213 0.20628081 0.96700013 nan
0.022924932 0.20670739 0.96900004 nan
0.024825284 0.20713404 0.97100013 nan
0.026678404 0.20713404 0.97100013 nan
0.028590286 0.2075607 0.97300011 nan
0.03050979 0.20798731 0.97500008 nan
0.032370478 0.20798729 0.97500008 nan
0.034231231 0.20798734 0.97500008 nan
0.036128923 0.20820063 0.97600013 nan
0.038108319 0.20884061 0.97900009 nan
0.040058404 0.20926723 0.98100013 nan
0.042229757 0.21076049 0.98800009 nan
0.044651039 0.21332034 1 nan
0.046885431 0.21481362 1.0070001 nan
0.048807211 0.21481359 1.0070001 nan
-0.019770235 0.21028453 0.97700012 nan
-0.017887343 0.21006927 0.97600013 nan
-0.015991937 0.20963879 0.9740001 nan
-0.014089579 0.20899306 0.97100019 nan
-0.012223894 0.2087779 0.97000009 nan
-0.010383384 0.20899309 0.97100013 nan
-0.0085215289 0.2087779 0.97000009 nan
-0.0066703614 0.20877787 0.97000009 nan
-0.0048191883 0.20877792 0.97000009 nan
-0.0029648952 0.20856261 0.9690001 nan
-0.0011156239 0.20856264 0.96900004 nan
0.00073363259 0.20856264 0.9690001 nan
0.0025802646 0.20834738 0.96800011 nan
0.0044230632 0.20813219 0.96700007 nan
0.0062619951 0.20791695 0.96600008 nan
0.008097196 0.20770168 0.96500003 nan
0.0099182148 0.20727123 0.96300006 nan
0.011743797 0.20705602 0.96200013 nan
0.013579762 0.20705602 0.96200013 nan
0.015399659 0.20684075 0.96100008 nan
0.017251542 0.207056 0.96200013 nan
0.019107318 0.2072712 0.96300006 nan
0.020966867 0.20748648 0.96400011 nan
0.02285389 0.20791689 0.96600008 nan
0.02474864 0.20834741 0.96800011 nan
0.026650889 0.20877789 0.97000009 nan
0.028590316 0.20942357 0.97300011 nan
0.030541046 0.21006924 0.97600013 nan
0.032403693 0.21006924 0.97600013 nan
0.034301423 0.21028452 0.97700006 nan
0.036239967 0.21071498 0.97900003 nan
0.038186222 0.21114546 0.98100013 nan
0.040140033 0.21157596 0.98300004 nan
0.042315215 0.21308258 0.99000013 nan
0.044695705 0.21545014 1.001 nan
0.046931989 0.21695679 1.0080001 nan
0.048855677 0.21695682 1.0080001 nan
-0.019709511 0.21150364 0.9740001 nan
-0.017814044 0.2110693 0.97200012 nan
-0.015926275 0.21063504 0.97000009 nan
-0.014060544 0.21041788 0.9690001 nan
-0.012198629 0.21020071 0.96800011 nan
-0.010351276 0.2102007 0.96800011 nan
-0.0085039269 0.2102007 0.96800011 nan
-0.0066565741 0.21020068 0.96800011 nan
-0.0048042219 0.20998353 0.96700007 nan
-0.0029587653 0.20998357 0.96700007 nan
-0.0011133179 0.20998357 0.96700013 nan
0.00073131733 0.20976642 0.96600008 nan
0.0025749039 0.20976642 0.96600008 nan
0.0044138674 0.20954928 0.96500003 nan
0.0062490571 0.20933211 0.96400011 nan
0.0080803987 0.20911497 0.96300006 nan
0.0099079218 0.20889784 0.96200007 nan
0.011719385 0.20846352 0.9600001 nan
0.013551449 0.20846355 0.9600001 nan
0.015367566 0.20824635 0.95900005 nan
0.017215656 0.20846355 0.9600001 nan
0.019067669 0.20868066 0.96100008 nan
0.020901674 0.20868066 0.96100008 nan
0.022782968 0.20911494 0.96300006 nan
0.02469744 0.20976643 0.96600008 nan
0.026568482 0.20998356 0.96700007 nan
0.028531482 0.21085212 0.97100013 nan
0.030509727 0.21172078 0.97500008 nan
0.0323705 0.21172073 0.97500008 nan
0.034301408 0.21215506 0.97700012 nan
0.036239974 0.21258934 0.97900003 nan
0.038186207 0.21302363 0.98100013 nan
0.040180869 0.21367507 0.98400003 nan
0.04231517 0.21497801 0.99000007 nan
0.044695735 0.21736664 1.001 nan
0.046978533 0.21910386 1.0090001 nan
0.048904181 0.21910384 1.0090001 nan
-0.023451192 0.21358746 0.97500014 nan
-0.021546206 0.21314935 0.97300011 nan
-0.01970952 0.2133684 0.9740001 nan
-0.017814076 0.21293025 0.97200012 nan
-0.015926277 0.21249218 0.97000009 nan
-0.014060525 0.21227306 0.9690001 nan
-0.012148296 0.21117778 0.96400011 nan
-0.010308519 0.21117778 0.96400011 nan
-0.0084687937 0.21117778 0.96400011 nan
-0.0066290777 0.21117774 0.96400011 nan
-0.0047843568 0.21095869 0.96300006 nan
-0.0029465239 0.21095873 0.96300006 nan
-0.0011087041 0.21095872 0.96300006 nan
0.00072907098 0.2109587 0.96300006 nan
0.0025669374 0.21095872 0.96300012 nan
0.004400162 0.21073963 0.96200013 nan
0.0062295888 0.21052058 0.96100008 nan
0.0080551524 0.21030152 0.9600001 nan
0.0098770354 0.21008246 0.95900005 nan
0.011694973 0.20986339 0.95800006 nan
0.013509141 0.20964432 0.95700008 nan
0.015335524 0.20964432 0.95700008 nan
0.01716187 0.20964435 0.95700002 nan
0.01898825 0.2096443 0.95700002 nan
0.020836378 0.20986333 0.95800006 nan
0.022688368 0.21008244 0.95900011 nan
0.024569677 0.21052055 0.96100008 nan
0.026431115 0.21073967 0.96200013 nan
0.028384561 0.21161589 0.96600008 nan
0.03041585 0.21293026 0.97200012 nan
0.032337241 0.21336842 0.9740001 nan
0.034196064 0.21336836 0.9740001 nan
0.036239982 0.2144637 0.97900009 nan
0.038302988 0.21555904 0.98400003 nan
0.040303364 0.21621624 0.98700005 nan
0.042486176 0.21774971 0.99400008 nan
0.04469569 0.21928315 1.001 nan
0.046931952 0.22081661 1.008 nan
0.049049549 0.22169283 1.0120001 nan
-0.025234055 0.21479122 0.97200012 nan
-0.023451177 0.21545418 0.97500008 nan
-0.021546183 0.21501222 0.97300011 nan
-0.019608356 0.2141283 0.9690001 nan
-0.01772237 0.21368636 0.96700007 nan
-0.015860565 0.21346533 0.96600014 nan
-0.014002513 0.21324438 0.96500003 nan
-0.012148276 0.21302342 0.96400011 nan
-0.010308506 0.21302342 0.96400011 nan
-0.00846879 0.21302338 0.96400011 nan
-0.0066015702 0.2121395 0.96000004 nan
-0.0047694668 0.21213952 0.9600001 nan
-0.0029374082 0.2121395 0.9600001 nan
-0.0011040997 0.21191852 0.95900011 nan
0.00072609633 0.21191853 0.95900011 nan
0.0025562923 0.21191852 0.95900011 nan
0.0043864883 0.21191852 0.95900011 nan
0.0062101278 0.2116975 0.95800006 nan
0.0080384295 0.21169755 0.95800006 nan
0.0098460708 0.21125555 0.95600009 nan
0.01165838 0.21103461 0.95500004 nan
0.013466815 0.21081363 0.95400006 nan
0.01527136 0.21059266 0.95300013 nan
0.017090106 0.21059263 0.95300013 nan
0.01892872 0.21081361 0.95400012 nan
0.020749392 0.21081363 0.95400012 nan
0.02259369 0.21103466 0.95500004 nan
0.024441814 0.21125555 0.95600015 nan
0.026293738 0.21147658 0.95700008 nan
0.02817888 0.2119185 0.95900011 nan
0.030009074 0.21191852 0.95900011 nan
0.032204427 0.21434931 0.97000009 nan
0.034371629 0.21633811 0.97900009 nan
0.036239982 0.21633805 0.97900009 nan
0.03834188 0.21766396 0.98500013 nan
0.040385015 0.21854788 0.98900008 nan
0.042657152 0.22053669 0.99800003 nan
0.044383161 0.21965277 0.99400002 nan
0.046885438 0.22252549 1.0070001 nan
0.04900109 0.22340941 1.011 nan
-0.029301343 0.21932697 0.98400003 nan
-0.027200537 0.21754378 0.97600013 nan
-0.025234029 0.21665223 0.97200012 nan
-0.023282832 0.21576059 0.96800011 nan
-0.021413296 0.21553777 0.96700013 nan
-0.019527424 0.21509199 0.96500009 nan
-0.017649094 0.21464618 0.96300012 nan
-0.01581127 0.21464616 0.96300006 nan
-0.013958963 0.21442327 0.96200013 nan
-0.012110407 0.21420041 0.96100008 nan
-0.010276441 0.21420039 0.96100008 nan
-0.0084336959 0.2139775 0.9600001 nan
-0.0066015497 0.21397752 0.9600001 nan
-0.0047694948 0.21397752 0.9600001 nan
-0.0029281694 0.21330884 0.95700002 nan
-0.0011017974 0.2133088 0.95700002 nan
0.00072378293 0.21308589 0.95600009 nan
0.0025482625 0.21308589 0.95600009 nan
0.0043727048 0.21308593 0.95600009 nan
0.0061971862 0.21308593 0.95600009 nan
0.0080132503 0.21286306 0.95500004 nan
0.0098255072 0.21264009 0.95400012 nan
0.011621719 0.21219437 0.95200008 nan
0.013424473 0.21197148 0.95100009 nan
0.015223319 0.21174856 0.95000005 nan
0.017036365 0.21174857 0.95000011 nan
0.018869231 0.21197148 0.95100009 nan
0.020684125 0.21197148 0.95100009 nan
0.022499109 0.21197143 0.95100009 nan
0.024314025 0.21197149 0.95100009 nan
0.026128927 0.21197148 0.95100009 nan
0.027973177 0.21219437 0.95200008 nan
0.029946493 0.21330884 0.95700008 nan
0.031905681 0.21420035 0.96100008 nan
0.033739664 0.21420035 0.96100008 nan
0.036017895 0.21687514 0.97300011 nan
0.038302958 0.21932696 0.98400003 nan
0.040425822 0.22066426 0.99000013 nan
0.042699933 0.22267032 0.99900013 nan
0.044606417 0.22267029 0.99900013 nan
0.046931967 0.2246764 1.008 nan
0.049049497 0.22556791 1.0120001 nan
0.064739279 0.24874885 1.1160001 nan
-0.029301366 0.22121091 0.98400003 nan
-0.027200481 0.21941239 0.97600013 nan
-0.025130197 0.21761397 0.96800011 nan
-0.023210701 0.21693958 0.96500009 nan
-0.021369029 0.21693954 0.96500009 nan
-0.019486945 0.21648994 0.96300006 nan
-0.017630789 0.21626513 0.96200013 nan
-0.01577845 0.21604027 0.96100008 nan
-0.013929987 0.21581551 0.9600001 nan
-0.012072641 0.2153659 0.95800006 nan
-0.010244362 0.21536586 0.95800012 nan
-0.0084072985 0.21514109 0.95700008 nan
-0.00658096 0.21514107 0.95700002 nan
-0.0047545768 0.21514107 0.95700008 nan
-0.0029281918 0.21514107 0.95700008 nan
-0.0011018049 0.21514107 0.95700008 nan
0.000723809 0.21491626 0.95600009 nan
0.0025482401 0.21491626 0.95600009 nan
0.0043727234 0.21491626 0.95600009 nan
0.0061906781 0.21469148 0.95500004 nan
0.0080132578 0.21469149 0.9550001 nan
0.0098151807 0.21424186 0.95300007 nan
0.011621689 0.21401705 0.95200008 nan
0.013424469 0.2137922 0.95100009 nan
0.015223319 0.21356744 0.95000011 nan
0.017036358 0.21356744 0.95000011 nan
0.018869275 0.21379222 0.95100009 nan
0.020684177 0.21379222 0.95100009 nan
0.022475401 0.21356745 0.95000011 nan
0.02426284 0.21334259 0.94900012 nan
0.02610139 0.21356744 0.95000005 nan
0.027943829 0.2137922 0.95100009 nan
0.029883919 0.21469148 0.95500004 nan
0.031806074 0.21536589 0.95800012 nan
0.03363432 0.21536587 0.95800012 nan
0.036054857 0.21896279 0.9740001 nan
0.038302973 0.22121091 0.98400009 nan
0.04042583 0.22255971 0.99000007 nan
0.042785399 0.22503263 1.001 nan
0.044606447 0.224583 0.99900007 nan
0.046978533 0.22683105 1.0090001 nan
0.049049497 0.22750552 1.0120001 nan
0.06491331 0.25155997 1.1190002 nan
-0.029301353 0.22309482 0.98400003 nan
-0.027228385 0.22150782 0.97700006 nan
-0.025130188 0.21946724 0.96800011 nan
-0.023210719 0.21878712 0.96500003 nan
-0.021369042 0.21878713 0.96500009 nan
-0.019507185 0.21856035 0.96400011 nan
-0.017630758 0.21810691 0.96200013 nan
-0.015794877 0.21810694 0.96200013 nan
-0.01392993 0.21765348 0.9600001 nan
-0.012072654 0.21720004 0.95800012 nan
-0.010244362 0.21720004 0.95800006 nan
-0.00841612 0.21720003 0.95800006 nan
-0.0065809228 0.21697336 0.95700008 nan
-0.004754547 0.2169733 0.95700002 nan
-0.0029281639 0.2169733 0.95700008 nan
-0.0011018161 0.21697333 0.95700002 nan
0.00072378106 0.21674657 0.95600009 nan
0.0025455877 0.21651989 0.9550001 nan
0.004368145 0.21651986 0.9550001 nan
0.0061906818 0.21651989 0.95500004 nan
0.0080132429 0.21651985 0.95500004 nan
0.0098255109 0.21629314 0.95400012 nan
0.011621708 0.21583973 0.95200008 nan
0.01342448 0.21561298 0.95100003 nan
0.015223319 0.2153863 0.95000011 nan
0.01703635 0.21538627 0.95000011 nan
0.018849397 0.21538627 0.95000011 nan
0.020640599 0.21515954 0.94900012 nan
0.022428086 0.21493284 0.94800013 nan
0.024211707 0.21470612 0.94700009 nan
0.02601902 0.21470612 0.94700009 nan
0.027855663 0.21493283 0.94800007 nan
0.029790023 0.21583968 0.95200008 nan
0.031706452 0.21651988 0.95500004 nan
0.033634312 0.21720006 0.95800006 nan
0.036054857 0.22082759 0.9740001 nan
0.038302958 0.22309485 0.98400003 nan
0.04042583 0.22445515 0.99000013 nan
0.042785354 0.22694916 1.001 nan
0.045097604 0.22898963 1.01 nan
0.047025062 0.22898959 1.01 nan
0.049049512 0.22944304 1.0120001 nan
-0.031631745 0.25950295 1.1350001 nan
-0.025156142 0.22154923 0.9690001 nan
-0.023234777 0.2208633 0.96600008 nan
-0.021391237 0.22086328 0.96600008 nan
-0.019527419 0.2206347 0.96500003 nan
-0.017649116 0.2201774 0.96300012 nan
-0.015811292 0.22017738 0.96300006 nan
-0.013944423 0.21972008 0.96100008 nan
-0.012085203 0.21926287 0.95900005 nan
-0.010255056 0.21926285 0.95900011 nan
-0.0084248558 0.21926285 0.95900011 nan
-0.0065878406 0.21903417 0.95800006 nan
-0.0047595333 0.21903421 0.95800006 nan
-0.0029281862 0.21880554 0.95700008 nan
-0.0011018384 0.21880557 0.95700008 nan
0.00072379597 0.21857691 0.95600015 nan
0.0025482755 0.21857691 0.95600009 nan
0.0043727066 0.21857689 0.95600009 nan
0.0061971862 0.21857691 0.95600009 nan
0.0080216173 0.21857689 0.95600009 nan
0.009846108 0.21857694 0.95600009 nan
0.011646168 0.21811965 0.95400012 nan
0.013452625 0.21789104 0.95300007 nan
0.015255386 0.21766238 0.95200002 nan
0.017054332 0.21743374 0.95100009 nan
0.01884939 0.21720509 0.95000011 nan
0.020662347 0.21720512 0.95000011 nan
0.022428101 0.21674785 0.94800013 nan
0.024211692 0.21651921 0.94700003 nan
0.026018998 0.21651921 0.94700003 nan
0.027855655 0.21674784 0.94800007 nan
0.029790016 0.21766238 0.95200008 nan
0.03170646 0.21834829 0.95500004 nan
0.042828113 0.22909427 1.0020001 nan
0.045142233 0.231152 1.0110002 nan
0.047071651 0.23115197 1.0110002 nan
0.049098037 0.23160928 1.013 nan
0.051686168 0.2345815 1.026 nan
-0.03165964 0.2619065 1.136 nan
-0.025208078 0.22386549 0.97100013 nan
-0.023306899 0.22340444 0.9690001 nan
-0.02143544 0.22317386 0.96800011 nan
-0.019588081 0.2231739 0.96800017 nan
-0.017704122 0.22271274 0.96600008 nan
-0.015844123 0.22248223 0.96500003 nan
-0.014046025 0.22317387 0.96800011 nan
-0.012148272 0.2222517 0.96400011 nan
-0.01028714 0.22179057 0.96200013 nan
-0.008459989 0.22202115 0.96300012 nan
-0.006608393 0.22156003 0.96100008 nan
-0.0047843494 0.22202113 0.96300006 nan
-0.0029435158 0.22179058 0.96200013 nan
-0.0011064094 0.22156 0.96100008 nan
0.00072609261 0.22109893 0.95900005 nan
0.0025562886 0.22109893 0.95900005 nan
0.0043818727 0.22086838 0.95800006 nan
0.0062101204 0.22086838 0.95800006 nan
0.0080383997 0.22086832 0.95800012 nan
0.0098563749 0.22063783 0.95700008 nan
0.011670591 0.22040722 0.95600009 nan
0.013495034 0.22040726 0.95600009 nan
0.015287453 0.21994615 0.95400012 nan
0.017090121 0.2197156 0.95300013 nan
0.018889019 0.21948506 0.95200008 nan
0.020684158 0.21925454 0.95100003 nan
0.022475393 0.219024 0.95000011 nan
0.024237284 0.2185629 0.94800013 nan
0.026073938 0.21879335 0.94900012 nan
0.027914422 0.219024 0.95000011 nan
0.029821293 0.21971564 0.95300013 nan
0.031739637 0.22040723 0.95600003 nan
0.033564106 0.22040728 0.95600009 nan
0.042913578 0.23147374 1.0040001 nan
0.044829644 0.23147373 1.0040001 nan
0.047118157 0.23331815 1.0120001 nan
0.049195014 0.2340098 1.0150001 nan
0.051686183 0.23654588 1.026 nan
-0.025285996 0.22642195 0.9740001 nan
-0.023354989 0.22572458 0.97100013 nan
-0.021501921 0.22572456 0.97100019 nan
-0.019628592 0.22549215 0.97000009 nan
-0.017740717 0.22502716 0.96800011 nan
-0.015893355 0.2250272 0.96800017 nan
-0.014002465 0.22432978 0.96500003 nan
-0.012148263 0.22409728 0.96400011 nan
-0.010308525 0.22409733 0.96400005 nan
-0.0084599871 0.22386488 0.96300012 nan
-0.0066221636 0.22386487 0.96300006 nan
-0.00478434 0.22386487 0.96300006 nan
-0.0029434748 0.22363243 0.96200013 nan
-0.001106428 0.22339991 0.96100008 nan
0.00072610192 0.22293504 0.95900011 nan
0.0025563017 0.22293502 0.95900011 nan
0.0043818299 0.22270255 0.95800006 nan
0.0062296111 0.22339991 0.96100008 nan
0.0080551486 0.22316748 0.9600001 nan
0.0098872948 0.22316749 0.9600001 nan
0.011707203 0.22293505 0.95900011 nan
0.013537394 0.22293499 0.95900005 nan
0.015335521 0.2224701 0.95700002 nan
0.017143922 0.2222376 0.95600009 nan
0.018948587 0.22200517 0.95500004 nan
0.020749362 0.22177269 0.95400012 nan
0.022546342 0.2215402 0.95300013 nan
0.024339518 0.22130774 0.95200002 nan
0.026156323 0.22130774 0.95200008 nan
0.027973177 0.22130774 0.95200008 nan
0.029883927 0.22200517 0.9550001 nan
0.031806052 0.22270253 0.95800006 nan
0.033634298 0.2227025 0.95800006 nan
0.035906769 0.22549209 0.97000009 nan
0.042956397 0.23362841 1.005 nan
0.044874318 0.23362842 1.005 nan
0.047211342 0.23572062 1.0140001 nan
0.04924342 0.2361856 1.0160002 nan
0.05168613 0.23851019 1.0260001 nan
0.053644225 0.23851024 1.0260001 nan
-0.025389802 0.22922432 0.9780001 nan
-0.023427194 0.2282868 0.9740001 nan
-0.021568362 0.2282868 0.9740001 nan
-0.019689254 0.22805241 0.97300011 nan
-0.017814042 0.22781804 0.97200012 nan
-0.015959065 0.22781803 0.97200006 nan
-0.01406049 0.22711492 0.9690001 nan
-0.012186013 0.22664614 0.96700013 nan
-0.010340605 0.22664617 0.96700013 nan
-0.0084863789 0.22641172 0.96600008 nan
-0.0066428352 0.2264117 0.96600008 nan
-0.0047993008 0.2264117 0.96600008 nan
-0.0029526614 0.22617738 0.96500009 nan
-0.0011098627 0.225943 0.96400011 nan
0.00072834827 0.22547422 0.96200013 nan
0.0025642794 0.22547427 0.96200013 nan
0.0043955855 0.22523981 0.96100008 nan
0.0062295962 0.22523981 0.96100008 nan
0.0080552083 0.22500545 0.96000004 nan
0.0099182446 0.2257086 0.96300006 nan
0.011743808 0.22547424 0.96200013 nan
0.013565639 0.22523984 0.96100008 nan
0.015383581 0.22500548 0.9600001 nan
0.01719779 0.22477108 0.95900011 nan
0.019027995 0.2247711 0.95900011 nan
0.020836392 0.22453669 0.95800012 nan
0.02264099 0.22430232 0.95700008 nan
0.02444181 0.22406793 0.95600009 nan
0.026238823 0.22383355 0.9550001 nan
0.028061355 0.22383358 0.9550001 nan
0.029977748 0.22453666 0.95800006 nan
0.031872444 0.22500545 0.9600001 nan
0.033704534 0.22500548 0.9600001 nan
0.035906792 0.22734931 0.97000009 nan
0.04304187 0.23602137 1.0070001 nan
0.044963606 0.23602137 1.0070001 nan
0.047257908 0.23789635 1.0150001 nan
0.049485706 0.23930269 1.021 nan
0.051686138 0.24047458 1.0260001 nan
0.053644225 0.24047457 1.0260001 nan
-0.025519602 0.23227826 0.9830001 nan
-0.023499306 0.23086047 0.97700006 nan
-0.021634791 0.23086052 0.97700006 nan
-0.019749988 0.23062417 0.97600013 nan
-0.017850751 0.23015155 0.9740001 nan
-0.015991917 0.23015155 0.9740001 nan
-0.014104074 0.22967896 0.97200012 nan
-0.012223884 0.22920641 0.97000003 nan
-0.010361979 0.22897016 0.9690001 nan
-0.0085127335 0.2289701 0.9690001 nan
-0.0066565555 0.22873379 0.96800017 nan
-0.0048092064 0.22873378 0.96800017 nan
-0.0029618423 0.22873382 0.96800017 nan
-0.0011122096 0.22826123 0.96600008 nan
0.00073059648 0.22802496 0.96500003 nan
0.002572272 0.22802496 0.96500003 nan
0.0044093318 0.22778861 0.96400011 nan
0.0062490273 0.22778863 0.96400011 nan
0.0080804247 0.22755234 0.96300006 nan
0.0099181999 0.22755232 0.96300012 nan
0.011756035 0.22755237 0.96300012 nan
0.013579721 0.22731605 0.96200007 nan
0.015399637 0.22707975 0.96100008 nan
0.017233646 0.22707975 0.96100003 nan
0.019067602 0.22707973 0.96100008 nan
0.020879818 0.22684345 0.9600001 nan
0.022688301 0.22660716 0.95900011 nan
0.02449294 0.2263709 0.95800006 nan
0.026293753 0.2261346 0.95700002 nan
0.02812011 0.2261346 0.95700008 nan
0.030040359 0.22684345 0.9600001 nan
0.031938873 0.22731602 0.96200013 nan
0.033774771 0.22731605 0.96200013 nan
0.043084577 0.23818566 1.008 nan
0.045008302 0.23818566 1.0080001 nan
0.047304451 0.24007602 1.016 nan
0.049485691 0.24125747 1.021 nan
0.05168619 0.24243894 1.0260001 nan
0.053644247 0.24243896 1.0260001 nan
-0.025571544 0.23463668 0.98500007 nan
-0.023547417 0.23320742 0.97900009 nan
-0.02165693 0.23296924 0.9780001 nan
-0.019770253 0.23273104 0.97700006 nan
-0.017869052 0.23225459 0.97500008 nan
-0.016008303 0.23225464 0.97500008 nan
-0.014118545 0.23177814 0.97300011 nan
-0.012236491 0.23130174 0.97100019 nan
-0.010383371 0.23130174 0.97100019 nan
-0.008521555 0.23106357 0.97000003 nan
-0.0066703558 0.23106353 0.97000009 nan
-0.0048191827 0.23106356 0.97000009 nan
-0.0029680189 0.23106354 0.97000009 nan
-0.0011144336 0.2305871 0.96800011 nan
0.00073213503 0.23034894 0.96700007 nan
0.0025775805 0.23034894 0.96700013 nan
0.0044184085 0.2301107 0.96600008 nan
0.0062619466 0.23011069 0.96600008 nan
0.0081055369 0.2301107 0.96600008 nan
0.0099284966 0.22963427 0.96400011 nan
0.011756038 0.2293961 0.96300006 nan
0.013579758 0.22915788 0.96200013 nan
0.015447678 0.22963426 0.96400011 nan
0.017269464 0.2293961 0.96300006 nan
0.019107329 0.22939608 0.96300006 nan
0.020945149 0.22939608 0.96300006 nan
0.022759298 0.22915789 0.96200013 nan
0.024544047 0.22868146 0.9600001 nan
0.026348712 0.22844326 0.95900011 nan
0.028149465 0.22820503 0.95800006 nan
0.030071663 0.22891966 0.96100008 nan
0.031972058 0.22939608 0.96300006 nan
0.034055606 0.23106354 0.97000009 nan
0.035906784 0.23106357 0.97000009 nan
0.043041848 0.23987731 1.0070001 nan
0.044963628 0.23987728 1.0070001 nan
0.047211327 0.24154481 1.0140001 nan
0.049437299 0.24297401 1.0200002 nan
0.05153507 0.24368869 1.023 nan
0.053644203 0.24440333 1.0260001 nan
-0.025571557 0.23652254 0.98500013 nan
-0.023595521 0.23556203 0.98100007 nan
-0.021679083 0.23508181 0.97900009 nan
-0.019790476 0.23484167 0.9780001 nan
-0.017887378 0.23436145 0.97600013 nan
-0.016024731 0.23436144 0.97600013 nan
-0.014133114 0.23388121 0.9740001 nan
-0.012261664 0.23364109 0.97300011 nan
-0.010404732 0.23364107 0.97300011 nan
-0.0085390471 0.23340094 0.97200012 nan
-0.0066840705 0.23340093 0.97200012 nan
-0.0048290845 0.23340096 0.97200012 nan
-0.0029710289 0.23316079 0.97100013 nan
-0.0011168011 0.23292074 0.97000003 nan
0.00073367544 0.23268056 0.9690001 nan
0.0025828965 0.23268059 0.9690001 nan
0.0044321921 0.23268054 0.96900004 nan
0.0062814448 0.23268053 0.9690001 nan
0.0081223566 0.23244043 0.96800017 nan
0.0099594202 0.23220032 0.96700007 nan
0.011780454 0.23172006 0.96500003 nan
0.013607943 0.23147997 0.96400011 nan
0.015447667 0.23147997 0.96400011 nan
0.017269475 0.23123984 0.96300006 nan
0.019146958 0.23172008 0.96500003 nan
0.020988638 0.23172009 0.96500009 nan
0.022806579 0.23147994 0.96400011 nan
0.02459521 0.23099971 0.96200013 nan
0.026403675 0.23075959 0.96100008 nan
0.028208224 0.23051944 0.9600001 nan
0.030102955 0.23099971 0.96200013 nan
0.031972066 0.23123981 0.96300006 nan
0.033809878 0.23123986 0.96300006 nan
0.036017917 0.23364109 0.97300011 nan
0.038419686 0.2370028 0.98700011 nan
0.040589213 0.23868367 0.99400002 nan
0.042486168 0.2386837 0.99400008 nan
0.044874333 0.24132502 1.005 nan
0.047164805 0.24324605 1.013 nan
0.049388841 0.24468681 1.0190002 nan
0.051434241 0.24516705 1.021 nan
-0.023619577 0.2376823 0.98200011 nan
-0.02172331 0.23744026 0.98100013 nan
-0.019790469 0.23671417 0.9780001 nan
-0.017905684 0.23647213 0.97700012 nan
-0.016041176 0.2364721 0.97700012 nan
-0.01416211 0.23623006 0.97600013 nan
-0.012286853 0.23598802 0.97500014 nan
-0.010426112 0.23598802 0.97500008 nan
-0.0085654184 0.23598799 0.97500008 nan
-0.0066978727 0.23574598 0.9740001 nan
-0.0048390385 0.23574598 0.9740001 nan
-0.0029770788 0.23550397 0.97300017 nan
-0.0011191182 0.23526189 0.97200012 nan
0.0007359162 0.23526193 0.97200006 nan
0.0025908928 0.23526192 0.97200018 nan
0.0044459142 0.23526192 0.97200006 nan
0.0062944237 0.23501985 0.97100013 nan
0.0081474949 0.23501983 0.97100019 nan
0.0099902321 0.23477785 0.97000009 nan
0.011817081 0.23429373 0.96800017 nan
0.01366443 0.2342937 0.96800017 nan
0.015495768 0.2340517 0.96700013 nan
0.017323235 0.23380965 0.96600008 nan
0.019146992 0.23356767 0.96500003 nan
0.021010356 0.23380965 0.96600008 nan
0.022853905 0.23380969 0.96600008 nan
0.024646366 0.2333256 0.96400011 nan
0.026458593 0.23308359 0.96300006 nan
0.028267035 0.23284152 0.96200013 nan
0.030134225 0.23308355 0.96300006 nan
0.032038465 0.23356764 0.96500003 nan
0.033809878 0.23308358 0.96300006 nan
0.036017939 0.23550397 0.97300011 nan
0.038419701 0.23889253 0.98700011 nan
0.04063005 0.24082881 0.99500012 nan
0.042528965 0.2408288 0.99500012 nan
0.044918999 0.24349126 1.006 nan
0.047164798 0.24518552 1.013 nan
0.049388833 0.2466377 1.0190002 nan
0.051434264 0.24712181 1.021 nan
-0.02366768 0.24005038 0.98400003 nan
-0.021789784 0.24005035 0.98400003 nan
-0.019810703 0.23883051 0.97900003 nan
-0.017924059 0.2385866 0.9780001 nan
-0.016057601 0.23858659 0.9780001 nan
-0.014176626 0.23834267 0.97700012 nan
-0.012312075 0.23834267 0.97700006 nan
-0.010447536 0.23834261 0.97700012 nan
-0.0085741952 0.23809867 0.97600007 nan
-0.0067115966 0.23809865 0.97600013 nan
-0.004848985 0.23809868 0.97600013 nan
-0.0029832255 0.23785475 0.97500008 nan
-0.0011214148 0.23761077 0.9740001 nan
0.0007373821 0.2376108 0.9740001 nan
0.002593603 0.23736684 0.97300011 nan
0.0044505335 0.23736683 0.97300011 nan
0.0063074138 0.23736683 0.97300011 nan
0.0081558805 0.23712285 0.97200012 nan
0.010010866 0.23712288 0.97200012 nan
0.011853689 0.23687886 0.97100013 nan
0.013692612 0.23663501 0.97000003 nan
0.015527854 0.23639101 0.9690001 nan
0.017359162 0.23614708 0.96800017 nan
0.01918667 0.2359031 0.96700007 nan
0.021010345 0.23565911 0.96600008 nan
0.022877609 0.2359031 0.96700007 nan
0.024697484 0.23565915 0.96600008 nan
0.026513549 0.23541519 0.96500003 nan
0.028325798 0.23517126 0.96400011 nan
0.030165514 0.2351712 0.96400011 nan
0.032005228 0.23517124 0.96400005 nan
0.034090735 0.23687889 0.97100013 nan
0.035943806 0.23687889 0.97100013 nan
0.038419746 0.24078217 0.98700011 nan
0.040630028 0.24273384 0.99500012 nan
0.042870805 0.24468544 1.003 nan
0.044785008 0.24468544 1.0030001 nan
0.04711815 0.24688101 1.0120001 nan
0.049340338 0.24834478 1.0180001 nan
0.051383913 0.24883264 1.0200001 nan
-0.023739826 0.24267189 0.98700011 nan
-0.021856215 0.24267188 0.98700011 nan
-0.019911882 0.24193424 0.98400009 nan
-0.017960666 0.24095082 0.98000008 nan
-0.016073994 0.24070494 0.97900003 nan
-0.01420564 0.24070488 0.97900009 nan
-0.012337312 0.24070491 0.97900009 nan
-0.010468904 0.24070492 0.97900009 nan
-0.0085917637 0.24045905 0.9780001 nan
-0.0067253057 0.24045904 0.9780001 nan
-0.0048589297 0.24045905 0.9780001 nan
-0.0029893629 0.24021322 0.97700006 nan
-0.0011236742 0.23996732 0.97600013 nan
0.00073822029 0.23972145 0.97500014 nan
0.0025989134 0.23972143 0.97500014 nan
0.0044550393 0.23947556 0.9740001 nan
0.0063138325 0.23947555 0.9740001 nan
0.0081643332 0.23922971 0.97300005 nan
0.010021226 0.23922974 0.97300011 nan
0.011865867 0.23898387 0.97200012 nan
0.013720891 0.23898387 0.97200012 nan
0.015575865 0.23898385 0.97200012 nan
0.017394977 0.23849213 0.97000009 nan
0.019206496 0.23800036 0.96800011 nan
0.021053897 0.23800041 0.96800011 nan
0.022877576 0.23775449 0.96700007 nan
0.02474864 0.23800036 0.96800011 nan
0.026568526 0.23775454 0.96700007 nan
0.028384523 0.23750862 0.96600008 nan
0.030196851 0.23726279 0.96500003 nan
0.032038435 0.23726276 0.96500003 nan
0.034055598 0.23849212 0.97000009 nan
0.035906777 0.23849216 0.97000009 nan
0.042828128 0.24635993 1.0020001 nan
0.045186862 0.24881856 1.0120001 nan
0.04711818 0.24881858 1.0120002 nan
0.04934033 0.25029379 1.0180001 nan
0.051333524 0.25053963 1.0190002 nan
0.053591937 0.25201485 1.0250002 nan
0.055548079 0.25201488 1.0250002 nan
-0.023932226 0.24654382 0.99500012 nan
-0.021922696 0.24530491 0.99000013 nan
-0.019992784 0.24480934 0.98800004 nan
-0.018034 0.24381821 0.98400009 nan
-0.016139679 0.2435704 0.9830001 nan
-0.014249207 0.24332261 0.98200011 nan
-0.012362451 0.24307486 0.98100007 nan
-0.010479591 0.24282712 0.98000008 nan
-0.0086093228 0.24282712 0.98000008 nan
-0.0067390967 0.24282709 0.98000008 nan
-0.0048688296 0.24282709 0.98000008 nan
-0.0029955115 0.24257931 0.97900009 nan
-0.0011271834 0.24257933 0.97900009 nan
0.00074044801 0.24233153 0.9780001 nan
0.0026042312 0.24208371 0.97700012 nan
0.004468793 0.24208376 0.97700006 nan
0.0063203704 0.24158818 0.97500008 nan
0.0081811007 0.24158813 0.97500008 nan
0.01004185 0.24158818 0.97500008 nan
0.011890287 0.24134034 0.9740001 nan
0.013749084 0.24134037 0.9740001 nan
0.015639985 0.24183589 0.97600019 nan
0.017502597 0.24183592 0.97600013 nan
0.019246185 0.24034926 0.97000003 nan
0.021097364 0.24034931 0.97000009 nan
0.022924909 0.24010147 0.9690001 nan
0.024774181 0.24010149 0.96900004 nan
0.026568519 0.2396059 0.96700013 nan
0.028443364 0.23985367 0.96800017 nan
0.030259462 0.2396059 0.96700013 nan
0.032071657 0.23935807 0.96600008 nan
0.034055591 0.24034925 0.97000009 nan
0.035906784 0.24034923 0.97000003 nan
0.042913571 0.24877386 1.0040001 nan
0.044829629 0.24877384 1.0040001 nan
0.047164768 0.25100389 1.013 nan
0.04934033 0.2522428 1.0180001 nan
0.05138392 0.25273842 1.0200002 nan
0.053696483 0.25447285 1.0270002 nan
0.055656441 0.25447285 1.0270002 nan
-0.023932222 0.24844882 0.99500018 nan
-0.022033349 0.24844885 0.99500012 nan
-0.020053558 0.24745002 0.99100012 nan
-0.018088961 0.24645123 0.98700005 nan
-0.016172498 0.24595188 0.98500013 nan
-0.014292698 0.24595186 0.98500013 nan
-0.012387679 0.24545246 0.9830001 nan
-0.01050103 0.24520275 0.98200005 nan
-0.0086269956 0.24520274 0.98200011 nan
-0.0067528654 0.24520275 0.98200011 nan
-0.0048787855 0.24520274 0.98200011 nan
-0.0030015726 0.24495307 0.98100013 nan
-0.0011294279 0.2449531 0.98100013 nan
0.00074273534 0.24495304 0.98100013 nan
0.0026122779 0.24470337 0.98000008 nan
0.0044779275 0.24445371 0.97900003 nan
0.0063397754 0.24420394 0.97800016 nan
0.0081978496 0.24395432 0.97700012 nan
0.010062436 0.24395427 0.97700012 nan
0.01192694 0.24395426 0.97700012 nan
0.013777362 0.24370454 0.97600013 nan
0.015640011 0.24370453 0.97600013 nan
0.017502623 0.24370456 0.97600013 nan
0.019325538 0.24320516 0.9740001 nan
0.02111912 0.24245603 0.97100013 nan
0.02294852 0.24220642 0.97000009 nan
0.024774203 0.24195668 0.9690001 nan
0.026623422 0.24195671 0.9690001 nan
0.028443353 0.24170701 0.96800011 nan
0.030228132 0.24120754 0.96600008 nan
0.032071643 0.24120761 0.96600008 nan
0.034020543 0.24195668 0.9690001 nan
0.035869822 0.24195668 0.9690001 nan
0.042956404 0.25094581 1.005 nan
0.044874385 0.25094581 1.005 nan
0.047118187 0.25269368 1.0120001 nan
0.049340375 0.25419185 1.018 nan
0.051333517 0.25444156 1.0190001 nan
0.053644225 0.25618944 1.0260001 nan
0.055602267 0.25618947 1.026 nan
-0.023956325 0.25060546 0.99600011 nan
-0.022055544 0.25060549 0.99600011 nan
-0.020073803 0.24959901 0.9920001 nan
-0.018088993 0.24834093 0.98700011 nan
-0.016188975 0.2480893 0.98600012 nan
-0.014292667 0.24783772 0.98500007 nan
-0.012400271 0.24758607 0.98400003 nan
-0.010511681 0.24733448 0.9830001 nan
-0.0086357258 0.24733451 0.9830001 nan
-0.0067528635 0.24708287 0.98200011 nan
-0.0048787836 0.24708286 0.98200005 nan
-0.0030015875 0.24683124 0.98100013 nan
-0.0011294521 0.24683127 0.98100013 nan
0.00074276514 0.24683121 0.98100007 nan
0.0026122499 0.24657962 0.98000008 nan
0.0044825282 0.24657966 0.98000008 nan
0.0063397828 0.24607643 0.97800016 nan
0.0081978682 0.24582481 0.97700012 nan
0.010062387 0.24582484 0.97700012 nan
0.011914739 0.24557316 0.97600007 nan
0.01377734 0.24557316 0.97600013 nan
0.015639981 0.24557316 0.97600013 nan
0.017484704 0.24532162 0.97500008 nan
0.019325541 0.24506998 0.9740001 nan
0.021119135 0.24431512 0.97100013 nan
0.02294852 0.24406356 0.97000009 nan
0.024774188 0.24381191 0.96900004 nan
0.026623445 0.24381191 0.9690001 nan
0.028443312 0.24356028 0.96800017 nan
0.030228091 0.24305707 0.96600008 nan
0.032104902 0.24330871 0.96700013 nan
0.034055598 0.24406356 0.97000003 nan
0.035906799 0.24406351 0.97000009 nan
0.038147293 0.24657963 0.98000002 nan
0.040221721 0.24783771 0.98500007 nan
0.042913571 0.25261831 1.0040002 nan
0.044829652 0.25261834 1.0040001 nan
0.047118202 0.25463122 1.0120001 nan
0.049340338 0.25614089 1.018 nan
0.051333524 0.25639251 1.0190002 nan
0.053539708 0.25765055 1.0240002 nan
0.055493943 0.25765058 1.0240002 nan
-0.028531082 0.27862558 1.0990001 nan
-0.024028456 0.25327298 0.99900007 nan
-0.02212197 0.25327295 0.99900013 nan
-0.020114254 0.25200528 0.99400008 nan
-0.018107288 0.25048417 0.98800004 nan
-0.016205374 0.25023061 0.98700005 nan
-0.014336201 0.25048414 0.98800009 nan
-0.01243809 0.25023061 0.98700005 nan
-0.010554468 0.25023067 0.98700005 nan
-0.0086708535 0.25023064 0.98700005 nan
-0.0067872312 0.25023067 0.98700011 nan
-0.0048986282 0.2499771 0.98600012 nan
-0.0030169189 0.24997707 0.98600006 nan
-0.0011363849 0.25023067 0.98700011 nan
0.00074650347 0.24997708 0.98600012 nan
0.0026256032 0.2497236 0.98500007 nan
0.0045054052 0.24972358 0.98500013 nan
0.0063722152 0.24921654 0.9830001 nan
0.0082314219 0.24870943 0.98100013 nan
0.010103608 0.24870947 0.98100007 nan
0.011963604 0.24845597 0.98000008 nan
0.01381967 0.24820235 0.97900009 nan
0.015688045 0.2482024 0.97900003 nan
0.017556408 0.2482024 0.97900009 nan
0.019404912 0.2479489 0.97800016 nan
0.021227913 0.24744181 0.97600013 nan
0.023066843 0.2471883 0.97500008 nan
0.024901988 0.24693471 0.9740001 nan
0.026760781 0.24693474 0.9740001 nan
0.028590271 0.24668124 0.97300017 nan
0.030290736 0.2454136 0.96800011 nan
0.032104887 0.2451601 0.96700013 nan
0.034020565 0.24566714 0.9690001 nan
0.035980843 0.24642774 0.97200012 nan
0.038147278 0.24845594 0.98000008 nan
0.040262491 0.24997707 0.98600012 nan
0.042913593 0.25454053 1.0040001 nan
0.045142233 0.25631529 1.011 nan
0.047071636 0.25631523 1.011 nan
0.049291924 0.25783643 1.0170001 nan
0.051283136 0.25808996 1.018 nan
0.05343508 0.25910398 1.0220002 nan
0.055493921 0.2596111 1.0240002 nan
-0.028531099 0.28072977 1.0990001 nan
-0.02400443 0.2549302 0.99800003 nan
-0.022166222 0.25569648 1.001 nan
-0.020134464 0.2541638 0.99500012 nan
-0.01814398 0.25288665 0.99000013 nan
-0.016221695 0.25237578 0.98800009 nan
-0.01433622 0.25237575 0.98800009 nan
-0.01243812 0.25212035 0.98700011 nan
-0.010554506 0.25212032 0.98700011 nan
-0.0086708348 0.25212038 0.98700005 nan
-0.0067872237 0.25212035 0.98700005 nan
-0.0048986766 0.25186485 0.98600012 nan
-0.0030169245 0.25186485 0.98600012 nan
-0.0011363775 0.25212035 0.98700005 nan
0.00074648671 0.25186479 0.98600012 nan
0.0026255865 0.25160944 0.98500013 nan
0.0045053866 0.25160944 0.98500013 nan
0.0063722152 0.25109851 0.9830001 nan
0.008231448 0.25058761 0.98100007 nan
0.010103593 0.25058764 0.98100007 nan
0.011963608 0.25033221 0.98000008 nan
0.013819734 0.25007677 0.97900009 nan
0.01568806 0.2500768 0.97900009 nan
0.017556412 0.25007677 0.97900009 nan
0.019404912 0.24982135 0.9780001 nan
0.021227891 0.24931043 0.97600013 nan
0.023066895 0.249055 0.97500008 nan
0.024901988 0.24879953 0.9740001 nan
0.026760789 0.24879956 0.9740001 nan
0.028590264 0.24854413 0.97300011 nan
0.030415876 0.24828869 0.97200012 nan
0.032204427 0.24777783 0.97000009 nan
0.034055591 0.24777782 0.97000009 nan
0.035980865 0.24828871 0.97200012 nan
0.038147278 0.25033218 0.98000008 nan
0.040221669 0.2516095 0.98500013 nan
0.045097589 0.25799546 1.01 nan
0.047025092 0.25799549 1.01 nan
0.049243405 0.25952807 1.016 nan
0.0512328 0.25978351 1.0170002 nan
0.053435087 0.26106068 1.0220002 nan
0.05538547 0.26106071 1.0220002 nan
-0.024004428 0.25684094 0.99800009 nan
-0.022099759 0.25684094 0.99800009 nan
-0.020114247 0.25581148 0.99400002 nan
-0.018143985 0.25478208 0.99000013 nan
-0.016221721 0.25426736 0.98800004 nan
-0.014336191 0.25426739 0.98800009 nan
-0.012450673 0.25426736 0.98800004 nan
-0.010554488 0.25401002 0.98700011 nan
-0.0086708777 0.25401002 0.98700011 nan
-0.0067803822 0.25375262 0.98600012 nan
-0.0048986338 0.25375262 0.98600012 nan
-0.0030169245 0.25375259 0.98600006 nan
-0.001135217 0.25375259 0.98600012 nan
0.00074649788 0.25375262 0.98600012 nan
0.00262825 0.25375259 0.98600012 nan
0.00450534 0.25349531 0.98500007 nan
0.0063722264 0.25298059 0.9830001 nan
0.008239774 0.25272325 0.98200011 nan
0.01010363 0.25246587 0.98100007 nan
0.011963589 0.2522085 0.98000008 nan
0.013833864 0.2522085 0.98000008 nan
0.015704142 0.25220853 0.98000008 nan
0.017556386 0.25195116 0.97900009 nan
0.019404905 0.25169379 0.9780001 nan
0.021227909 0.25117907 0.97600013 nan
0.023090521 0.2511791 0.97600007 nan
0.024927562 0.25092173 0.97500008 nan
0.026760777 0.25066432 0.9740001 nan
0.028678412 0.25117907 0.97600019 nan
0.030478416 0.25066435 0.9740001 nan
0.032304056 0.25040701 0.97300011 nan
0.034125842 0.25014961 0.97200012 nan
0.036054865 0.25066432 0.9740001 nan
0.038147315 0.25220847 0.98000002 nan
0.040180877 0.2532379 0.98400003 nan
0.042614438 0.25658354 0.9970001 nan
0.044517159 0.25658351 0.9970001 nan
0.046978518 0.25967184 1.0090001 nan
0.049243428 0.2614733 1.016 nan
0.051232785 0.26173061 1.0170001 nan
0.053435095 0.26301739 1.0220002 nan
0.05538547 0.26301742 1.0220002 nan
-0.020093996 0.25745529 0.99300009 nan
-0.018198933 0.25745529 0.99300009 nan
-0.016254641 0.25667754 0.99000013 nan
-0.014365265 0.25667751 0.99000013 nan
-0.012463347 0.25641817 0.98900008 nan
-0.010575912 0.25641823 0.98900008 nan
-0.0086796097 0.25615895 0.98800004 nan
-0.0067940895 0.25615895 0.98800009 nan
-0.004903635 0.25589973 0.98700011 nan
-0.0030200239 0.2558997 0.98700005 nan
-0.0011374783 0.25615895 0.98800009 nan
0.00074805133 0.25615898 0.98800004 nan
0.0026335716 0.25615898 0.98800009 nan
0.0045191329 0.25615895 0.98800009 nan
0.0063916389 0.25564042 0.98600018 nan
0.0082566012 0.25512186 0.98400003 nan
0.010134501 0.25512189 0.98400003 nan
0.011987941 0.25460336 0.98200011 nan
0.013862023 0.25460333 0.98200011 nan
0.015736105 0.25460333 0.98200011 nan
0.017592283 0.25434402 0.98100007 nan
0.019444654 0.25408477 0.98000002 nan
0.021293132 0.25382555 0.97900009 nan
0.023137821 0.25356621 0.9780001 nan
0.02497871 0.25330696 0.97700012 nan
0.026815785 0.2530477 0.97600013 nan
0.028678419 0.25304765 0.97600013 nan
0.030541031 0.25304767 0.97600007 nan
0.03237047 0.25278836 0.97500014 nan
0.034196034 0.25252914 0.9740001 nan
0.036091939 0.25278842 0.97500008 nan
0.038147286 0.2540848 0.98000008 nan
0.040180862 0.25512189 0.98400003 nan
0.042528927 0.25797379 0.99500012 nan
0.044427872 0.25797379 0.99500012 nan
0.046885416 0.26108506 1.0070001 nan
0.049195006 0.26315928 1.0150001 nan
0.051232785 0.26367778 1.0170001 nan
0.053435095 0.26497409 1.0220002 nan
0.05538547 0.26497412 1.0220002 nan
-0.020134468 0.25987884 0.99500012 nan
-0.018235561 0.25987881 0.99500012 nan
-0.016287487 0.25909531 0.99200004 nan
-0.01439431 0.25909525 0.9920001 nan
-0.012488485 0.25883409 0.99100006 nan
-0.010586604 0.25857294 0.99000013 nan
-0.0086972173 0.25857297 0.99000013 nan
-0.0068009794 0.25831175 0.98900008 nan
-0.0049135555 0.25831172 0.98900008 nan
-0.0030261185 0.25831175 0.98900008 nan
-0.0011386946 0.25831172 0.98900002 nan
0.00074874051 0.25831175 0.98900002 nan
0.0026361998 0.25831169 0.98900008 nan
0.0045236368 0.25831175 0.98900008 nan
0.0063981544 0.25778937 0.98700005 nan
0.0082733836 0.25752819 0.98600012 nan
0.010155054 0.25752819 0.98600012 nan
0.012024617 0.25726703 0.98500007 nan
0.013890268 0.25700581 0.98400003 nan
0.015768202 0.25700581 0.98400003 nan
0.017628146 0.25674462 0.9830001 nan
0.019484272 0.25648344 0.98200011 nan
0.021314906 0.25596106 0.98000002 nan
0.023161503 0.25569987 0.97900003 nan
0.025004273 0.25543869 0.97800016 nan
0.026870692 0.25543869 0.9780001 nan
0.028707812 0.25517753 0.97700006 nan
0.03054102 0.25491637 0.97600013 nan
0.0323705 0.25465515 0.97500008 nan
0.034196034 0.25439397 0.9740001 nan
0.036128923 0.25491637 0.97600013 nan
0.038147278 0.25596109 0.98000008 nan
0.04014004 0.25674465 0.9830001 nan
0.042486168 0.25961763 0.99400002 nan
0.044383176 0.25961769 0.99400002 nan
0.046792336 0.26249069 1.005 nan
0.049146518 0.26484135 1.0140001 nan
0.051232807 0.26562485 1.0170001 nan
0.053435028 0.26693082 1.0220002 nan
0.055385478 0.26693082 1.0220002 nan
-0.020174947 0.26231003 0.99700016 nan
-0.018272227 0.26231003 0.99700016 nan
-0.016303856 0.26125765 0.99300009 nan
-0.014394321 0.26099455 0.9920001 nan
-0.012488518 0.26073143 0.99100012 nan
-0.010586604 0.26046836 0.99000013 nan
-0.0086972248 0.26046836 0.99000013 nan
-0.006800985 0.26020527 0.98900008 nan
-0.0049135648 0.26020524 0.98900008 nan
-0.0030261371 0.26020524 0.98900002 nan
-0.0011387002 0.26020527 0.98900002 nan
0.00074876659 0.26020527 0.98900008 nan
0.0026335698 0.25994217 0.98800009 nan
0.004519131 0.25994217 0.98800009 nan
0.0063981209 0.25967908 0.98700011 nan
0.0082733463 0.25941598 0.98600012 nan
0.010155087 0.25941592 0.98600012 nan
0.012024594 0.25915283 0.98500007 nan
0.013904402 0.25915289 0.98500013 nan
0.015784202 0.25915286 0.98500013 nan
0.017628158 0.25862664 0.9830001 nan
0.019464487 0.25810045 0.98100007 nan
0.021293106 0.25757429 0.97900009 nan
0.02313781 0.25731114 0.97800016 nan
0.02500427 0.25731111 0.97800016 nan
0.026843244 0.25704807 0.97700006 nan
0.028707767 0.2570481 0.97700012 nan
0.030541038 0.25678498 0.97600013 nan
0.032370463 0.25652188 0.97500008 nan
0.034231201 0.25652188 0.97500014 nan
0.036128908 0.25678495 0.97600007 nan
0.038147278 0.25783741 0.98000008 nan
0.040099159 0.25836357 0.98200011 nan
0.042400621 0.26099458 0.9920001 nan
0.044293821 0.26099455 0.9920001 nan
