# .PCD v0.7 - Point Cloud Data file format
VERSION 0.7
FIELDS x y z
SIZE 4 4 4
TYPE F F F
COUNT 1 1 1
WIDTH 454
HEIGHT 1
VIEWPOINT 0 0 0 1 0 0 0
POINTS 454
DATA ascii
-0.084070466 0.11383067 0.73588002
-0.083108179 0.11052832 0.73608965
-0.076749727 0.11216582 0.7363618
-0.085905798 0.11375852 0.7365368
-0.081519641 0.11320362 0.73629934
-0.078475147 0.11359309 0.73601621
-0.081332661 0.11488205 0.73645282
-0.084508881 0.11546763 0.73610371
-0.080411389 0.11556441 0.73675507
-0.07709264 0.1158699 0.73626155
-0.081396602 0.11668166 0.73617154
-0.080094896 0.10810436 0.73707145
-0.077550046 0.10805702 0.73729503
-0.080456465 0.10992926 0.73763275
-0.075825118 0.11049943 0.73782635
-0.085578419 0.11195387 0.73778099
-0.082657494 0.11333725 0.73706979
-0.081346355 0.1142294 0.73754686
-0.077162646 0.11448459 0.73789293
-0.079767056 0.11565626 0.73748934
-0.078501068 0.10822217 0.73871326
-0.075561136 0.10901321 0.73846382
-0.080162622 0.11015689 0.73812646
-0.079979271 0.11019693 0.73882192
-0.078623787 0.11047369 0.7385686
-0.082690902 0.11190359 0.738859
-0.079838775 0.11124444 0.7381947
-0.072500691 0.11159276 0.7387318
-0.077095769 0.11344147 0.73844326
-0.073310532 0.11354058 0.73848432
-0.072595797 0.11376463 0.73896271
-0.07959269 0.11461161 0.73854959
-0.080586329 0.11576615 0.73808205
-0.079532124 0.11544643 0.7386176
-0.080950633 0.10719828 0.73992169
-0.072832219 0.10821871 0.7396788
-0.083661444 0.11089413 0.73902023
-0.085257418 0.1118152 0.73955053
-0.084038921 0.11107641 0.73930222
-0.07220713 0.11139036 0.73965681
-0.076738432 0.11446145 0.73923856
-0.074102506 0.10772382 0.74093789
-0.081908375 0.10852639 0.74048167
-0.07616245 0.10804177 0.74019653
-0.085395627 0.1095189 0.74016821
-0.078521058 0.10985497 0.74070877
-0.086041354 0.11044195 0.74077052
-0.088069662 0.11133139 0.74082184
-0.074079946 0.11199503 0.7407285
-0.084628865 0.11234801 0.74018043
-0.073254831 0.11210134 0.74019313
-0.087092526 0.11467902 0.74004567
-0.086861782 0.11425851 0.74026811
-0.082612976 0.10761166 0.74131227
-0.072728343 0.10854604 0.74136388
-0.070175812 0.10813192 0.74162138
-0.076706551 0.10985339 0.74135059
-0.075255789 0.1100016 0.74109
-0.088383168 0.11119741 0.74161011
-0.073377736 0.11128514 0.74137354
-0.072286747 0.11349233 0.74187756
-0.069337808 0.11344694 0.74194735
-0.072043516 0.10617205 0.74269515
-0.069642782 0.10723782 0.74224365
-0.078838661 0.10823556 0.74257559
-0.076936893 0.10813174 0.74211985
-0.071156718 0.10999545 0.74286354
-0.089540914 0.11038816 0.74252331
-0.086889915 0.11033804 0.7425831
-0.067999177 0.1108642 0.74265999
-0.071715422 0.11280622 0.74278277
-0.075853318 0.10484577 0.74309415
-0.080968432 0.10521686 0.74385893
-0.074180692 0.1067322 0.74349141
-0.070914395 0.10631231 0.74334162
-0.08505851 0.1090299 0.74382192
-0.068974048 0.1117356 0.74333382
-0.075736389 0.10517326 0.74453932
-0.067276001 0.10535139 0.74492437
-0.069433309 0.10675973 0.74428177
-0.078456774 0.10719246 0.74419314
-0.07123141 0.10706532 0.74407601
-0.074909277 0.10807285 0.74444532
-0.068839505 0.10974535 0.74474698
-0.063288502 0.11009847 0.7449314
-0.078742117 0.10429042 0.74567652
-0.068992369 0.10534583 0.74524248
-0.077344425 0.10640823 0.74594086
-0.073847428 0.10623678 0.7452811
-0.072311573 0.10604671 0.74501383
-0.088306919 0.10887597 0.74566114
-0.070152961 0.10893105 0.74508393
-0.06811057 0.10835329 0.7456243
-0.067459702 0.11037052 0.74561578
-0.06652081 0.1116155 0.74513477
-0.070988901 0.10471984 0.74647915
-0.083632372 0.10533799 0.74691218
-0.066955589 0.10587073 0.74619985
-0.071157336 0.10640115 0.7465201
-0.068663314 0.10603917 0.7467739
-0.06580016 0.10706405 0.74645191
-0.061791606 0.10762607 0.74673039
-0.063002504 0.10869038 0.74611795
-0.067292102 0.11035296 0.74655116
-0.065458432 0.11066768 0.74654514
-0.063499257 0.11025251 0.74651259
-0.073275499 0.10248058 0.74730891
-0.064709559 0.10423107 0.74733293
-0.073218249 0.10564008 0.74778527
-0.065303549 0.10652294 0.7475484
-0.064842477 0.10783354 0.74775225
-0.062295835 0.10903966 0.74757361
-0.064869501 0.11041485 0.74740773
-0.060159832 0.11056317 0.74744076
-0.067768648 0.10394428 0.74859118
-0.064867295 0.10304323 0.74848658
-0.061339222 0.10405379 0.74836218
-0.066099018 0.10508889 0.74835145
-0.064989433 0.10559396 0.74882066
-0.062275045 0.10585167 0.74867004
-0.061332684 0.10661027 0.74898291
-0.06073736 0.10782589 0.74899542
-0.062065203 0.10959197 0.74869704
-0.073570848 0.10452258 0.74931824
-0.067549169 0.1042916 0.74978989
-0.065174319 0.10437242 0.74963367
-0.063798942 0.10497821 0.74903929
-0.075958572 0.10538005 0.74963605
-0.059134319 0.10500821 0.74995834
-0.06082331 0.10648769 0.74900836
-0.060850784 0.10906468 0.74983543
-0.064727448 0.1009912 0.75076658
-0.05820848 0.10506174 0.75038224
-0.056775637 0.10546146 0.75042242
-0.058026079 0.10612718 0.75005901
-0.056257382 0.10656425 0.75035608
-0.071514875 0.10265016 0.7513774
-0.061730508 0.10364933 0.75107646
-0.054736208 0.1044843 0.75197423
-0.060226101 0.10505843 0.75176209
-0.056587361 0.10695992 0.75138575
-0.061666295 0.10184302 0.75248921
-0.05610954 0.10245245 0.75267935
-0.05728941 0.10352716 0.75251436
-0.056645308 0.10334802 0.75217772
-0.05950303 0.10804247 0.75205529
-0.060074061 0.10049207 0.75396961
-0.067804039 0.10178309 0.7533198
-0.063842632 0.10137483 0.75338078
-0.06166371 0.10197185 0.75383872
-0.059894852 0.10133898 0.75329578
-0.055707447 0.10142718 0.75313795
-0.071164593 0.10332403 0.75347495
-0.054661497 0.10497063 0.75395054
-0.057904571 0.10550728 0.75316596
-0.054807179 0.10671237 0.75342047
-0.053362258 0.10643703 0.75381291
-0.055877436 0.099996328 0.7542007
-0.05938153 0.10115485 0.7541402
-0.05380284 0.10218702 0.75484598
-0.057547521 0.10317232 0.75400758
-0.055968042 0.099348374 0.75581789
-0.069138981 0.10207129 0.75541741
-0.054465663 0.10242283 0.75573099
-0.052917451 0.10212141 0.75587219
-0.052404761 0.10342424 0.75505668
-0.051828805 0.10326263 0.75536072
-0.04978646 0.10567851 0.75573003
-0.055320717 0.09756735 0.75615865
-0.055767298 0.098167248 0.75654966
-0.065817282 0.099181741 0.7569834
-0.063005731 0.099761173 0.75634956
-0.054848254 0.09969829 0.75636858
-0.052376971 0.099464454 0.75623882
-0.053296514 0.10170377 0.75661641
-0.048351455 0.10475913 0.75680798
-0.05055403 0.10507377 0.75620288
-0.050470147 0.099225 0.75727528
-0.053644538 0.10039573 0.75710076
-0.048147626 0.10137279 0.75785768
-0.053358015 0.10382409 0.75745875
-0.053178798 0.097562976 0.75813907
-0.059350263 0.098115437 0.75885761
-0.051039752 0.09895397 0.75876832
-0.067368254 0.099780381 0.75841534
-0.058533199 0.099074908 0.75842428
-0.057007726 0.099350266 0.75881368
-0.053278048 0.099421859 0.75840926
-0.047500163 0.099449933 0.75844991
-0.043457959 0.099284694 0.75873327
-0.050441943 0.1015745 0.75876617
-0.048425503 0.10249834 0.75862384
-0.045873456 0.1027105 0.75885177
-0.049926281 0.096325062 0.75925231
-0.061396513 0.097994648 0.75957859
-0.055297315 0.097118668 0.75996339
-0.052550741 0.097671375 0.75913
-0.045838676 0.099653944 0.75979155
-0.046663292 0.10046583 0.75947738
-0.04708457 0.10135245 0.75902903
-0.045035467 0.10194067 0.75954878
-0.051542617 0.096997291 0.76089144
-0.050830454 0.096549809 0.76065874
-0.048268501 0.096772216 0.76034445
-0.050608389 0.099731527 0.76005429
-0.040561337 0.09910053 0.76076317
-0.044553705 0.1011942 0.76071513
-0.042775612 0.097031526 0.76109695
-0.043903369 0.099292524 0.7613526
-0.048862014 0.096710317 0.76281673
-0.045143478 0.097310945 0.76250511
-0.047361385 0.098071009 0.76227635
-0.045169745 0.1005064 0.76258975
-0.042580392 0.10164577 0.76226389
-0.041152529 0.10110246 0.76239502
-0.043734644 0.093933269 0.76351279
-0.054998294 0.095285937 0.76399267
-0.046698503 0.09570314 0.76376593
-0.042944677 0.095986076 0.76339549
-0.037415124 0.096687652 0.76388222
-0.059298072 0.098935857 0.76332551
-0.042936612 0.098634556 0.76375091
-0.040975925 0.098381124 0.76331401
-0.038868207 0.09996058 0.76320112
-0.048287675 0.09417253 0.76488346
-0.041156903 0.096557029 0.76438326
-0.036913283 0.098697983 0.76454884
-0.039389323 0.10007033 0.76453215
-0.046099856 0.095183797 0.76526237
-0.037818525 0.095453955 0.7652548
-0.043373603 0.096796706 0.7652263
-0.042198531 0.096068203 0.76503754
-0.038502451 0.09624546 0.76507998
-0.040730711 0.09716107 0.76519853
-0.036841195 0.098983914 0.76564938
-0.03644697 0.099397182 0.76564413
-0.036842085 0.094210535 0.76687467
-0.037832741 0.095205255 0.76616585
-0.03774821 0.097488798 0.7662288
-0.035775911 0.098353304 0.76682252
-0.037725531 0.099686988 0.76605189
-0.044357352 0.092490315 0.76760489
-0.051850196 0.094470382 0.76760197
-0.0332251 0.094006523 0.76768279
-0.033120338 0.096937679 0.76787728
-0.041354466 0.092434078 0.76860362
-0.040041171 0.093503051 0.76814914
-0.031845037 0.093515575 0.76860178
-0.04011948 0.094417788 0.76850247
-0.035018943 0.095664948 0.76879668
-0.033182897 0.095282495 0.76886106
-0.030203724 0.097888567 0.76893455
-0.032822881 0.090965986 0.76936257
-0.03330034 0.091060951 0.76903522
-0.04756283 0.092584819 0.7690717
-0.043289103 0.092427224 0.76915693
-0.03990002 0.09259627 0.76991904
-0.04133207 0.093643568 0.7693786
-0.034230787 0.093111299 0.76944017
-0.029747333 0.093161486 0.76963782
-0.036483031 0.094642133 0.76994371
-0.035155054 0.094455212 0.76952082
-0.034994252 0.090492502 0.7702651
-0.035708044 0.092058003 0.77022338
-0.030930987 0.093556777 0.770109
-0.032224435 0.094525211 0.77010679
-0.027282251 0.094942674 0.77010447
-0.034869641 0.095299751 0.77009344
-0.035396416 0.090909339 0.77190012
-0.028090404 0.092858344 0.7714833
-0.02332066 0.093357392 0.77150702
-0.027313659 0.094228901 0.77100241
-0.0248137 0.094990633 0.77191657
-0.026610492 0.095252737 0.77114886
-0.025594661 0.089043804 0.77284825
-0.02685572 0.091092668 0.77222413
-0.043513957 0.092908904 0.77226669
-0.026946049 0.092737585 0.77212906
-0.030536663 0.093362689 0.77213877
-0.023201702 0.094857462 0.77205706
-0.033643216 0.091402888 0.77316475
-0.024180437 0.092414938 0.77355599
-0.037464105 0.089897588 0.77486598
-0.027831219 0.089675054 0.77482319
-0.039329477 0.090018533 0.77410185
-0.024523724 0.090212606 0.77411789
-0.029848995 0.091419287 0.77432203
-0.028415902 0.091530867 0.77484244
-0.021344814 0.091186903 0.77480543
-0.023702731 0.089929841 0.77520132
-0.021824107 0.089522734 0.77517855
-0.033341408 0.091303647 0.77517742
-0.023106329 0.093146995 0.77585602
-0.022929478 0.093832716 0.77555919
-0.021344908 0.09369646 0.77570033
-0.019671248 0.093190864 0.77534378
-0.022136405 0.089677699 0.77631581
-0.025227856 0.092049748 0.776389
-0.020441128 0.092746407 0.77612805
-0.0194756 0.093450986 0.77625537
-0.017253624 0.093156636 0.77698165
-0.019339431 0.085636489 0.77778345
-0.01924629 0.088389494 0.77775985
-0.026117746 0.089408867 0.77709478
-0.016094316 0.091276839 0.77793443
-0.018591132 0.093174942 0.77722329
-0.015678298 0.088885352 0.77858347
-0.020363882 0.08964204 0.77809119
-0.024116995 0.090290472 0.77885169
-0.018491521 0.090330012 0.7787562
-0.023114586 0.085722901 0.7795313
-0.027412854 0.088439777 0.77910769
-0.026814694 0.089596607 0.77902532
-0.016068121 0.090366483 0.77962083
-0.015108686 0.09090998 0.77903175
-0.014452053 0.086907342 0.78065181
-0.022081418 0.088078246 0.78036416
-0.017674956 0.088760853 0.78007013
-0.014653984 0.089321174 0.78017074
-0.030876324 0.09026248 0.78015929
-0.014356567 0.091133244 0.78048426
-0.017154505 0.084534265 0.78132039
-0.018758347 0.085772552 0.78110468
-0.016883381 0.086986333 0.78178972
-0.017280456 0.087729111 0.78119773
-0.012910791 0.087935828 0.78151882
-0.018761322 0.084600374 0.7823391
-0.015157472 0.084768288 0.78237331
-0.008168729 0.08628571 0.78250962
-0.02542288 0.087152943 0.78204089
-0.028054712 0.08834625 0.78285152
-0.0088447295 0.084607981 0.78372705
-0.020794425 0.085259423 0.7830044
-0.016358588 0.086578019 0.78393579
-0.013716771 0.086409733 0.78355038
-0.011220437 0.089201167 0.78379792
-0.014019507 0.085622907 0.78493994
-0.015755109 0.087910302 0.78439039
-0.0074096932 0.08776921 0.78447062
-0.011667073 0.08828149 0.78458911
0.0091752633 0.083226658 0.78553915
-0.0091517195 0.084846444 0.78569198
-0.0075969244 0.085158154 0.78577816
-0.0093654571 0.087886654 0.78562558
-0.0088274498 0.08702828 0.78543675
0.011171484 0.082733251 0.78684586
-0.016342619 0.084087379 0.78652966
-0.0022315029 0.087024547 0.7863071
-0.012214039 0.082408637 0.78760427
-0.012281041 0.083081894 0.78749955
-0.020801136 0.084336549 0.78745759
-0.0093453825 0.084075749 0.78721148
-0.0057845786 0.084841602 0.78750527
-0.009610381 0.084642053 0.78835154
-0.0044092112 0.084236808 0.78849965
0.010919773 0.084330365 0.78818464
0.015192428 0.080252409 0.78923827
0.0042811059 0.083093673 0.78903276
-0.0022586088 0.085212238 0.78928405
0.0031962118 0.084532283 0.79018211
-0.0025084151 0.085027426 0.79041278
-0.0010429155 0.084362045 0.79117328
0.0012132829 0.084592216 0.79175276
0.018808784 0.07870423 0.79253244
0.0032118415 0.083254382 0.79289865
0.014350579 0.083581135 0.79270613
0.0073743863 0.082661018 0.79328108
0.0096408809 0.082055323 0.7931515
0.013525612 0.07930281 0.79425257
0.021486895 0.076351173 0.79532546
0.023733832 0.077085242 0.79537398
0.019496601 0.078060031 0.79588628
0.021210404 0.080321036 0.79510015
0.01701685 0.081706069 0.79570299
0.022628108 0.079949364 0.79613858
0.0067703212 0.081603505 0.79648232
0.028029036 0.076295361 0.797463
0.010480152 0.080367841 0.79754704
0.016034493 0.081334539 0.79735267
0.025881361 0.076846242 0.79851979
0.026716692 0.076556526 0.79858571
0.01689559 0.079137899 0.79887301
0.01429839 0.078993395 0.79996377
0.031294268 0.074711502 0.80195713
0.031225434 0.076617844 0.80106169
0.030052509 0.073991746 0.80270749
0.033081308 0.074368797 0.80259675
0.028908696 0.077167176 0.8027209
0.038409341 0.071122698 0.80358416
0.035252795 0.074845701 0.80395967
0.021021189 0.077284858 0.80303264
0.040348884 0.071538672 0.80466866
0.035723079 0.074653849 0.80558348
0.022797968 0.075753778 0.80609953
0.042849962 0.070416987 0.80761719
0.044166151 0.070378974 0.80772859
0.028682826 0.073698357 0.80723381
0.042534236 0.071582541 0.8087275
0.038984973 0.072277397 0.80839831
0.045406941 0.07243906 0.80863124
0.026392102 0.074098893 0.80813038
0.04789434 0.068327554 0.80938655
0.040262725 0.073177226 0.80954456
0.042550892 0.073979363 0.80910683
0.047014289 0.068475991 0.81140286
0.049922362 0.068976618 0.81287801
0.048777699 0.069215223 0.8120293
0.034915924 0.07056617 0.81276524
0.050375096 0.071121633 0.8122896
0.052515037 0.066641577 0.81319761
0.051278248 0.067514859 0.81325406
0.032108139 0.071290381 0.81435955
0.056437694 0.065757759 0.81586325
0.05493537 0.06685821 0.81541657
0.042095639 0.069298245 0.81563067
0.036531493 0.070864677 0.81508011
0.039449837 0.070343047 0.81517041
0.059158348 0.066392101 0.81609309
0.055406172 0.065782681 0.81702304
0.045811541 0.068271831 0.81720012
0.05765358 0.064099297 0.81837219
0.060855076 0.065348044 0.81859744
0.062649764 0.065827675 0.81866294
0.055923738 0.068574302 0.81851399
0.059481829 0.068383537 0.81848752
0.062863365 0.063558027 0.8203162
0.047530808 0.067618251 0.82026261
0.06481763 0.064364314 0.82194555
0.060706086 0.065757118 0.82107449
0.06333144 0.065047927 0.82148808
0.05444273 0.066617824 0.82186294
0.063576199 0.062477309 0.82225788
0.063225649 0.064283133 0.82287353
0.062117103 0.065952323 0.82263702
0.066086918 0.061235961 0.82355338
0.065867208 0.064593643 0.82343382
0.066841751 0.062455576 0.82415944
0.059619963 0.063095033 0.82483798
0.066696011 0.062682867 0.82533222
0.068446927 0.063370205 0.82665765
0.070405118 0.061480138 0.82752931
0.072789706 0.061602395 0.82701081
0.071680106 0.062424425 0.82731009
0.074099638 0.062069651 0.82888222
0.06748461 0.061216481 0.82936782
0.076546215 0.056972664 0.83001554
0.064698592 0.060307417 0.83061159
0.072170459 0.060645618 0.83016062
0.074078783 0.060424544 0.83194155
0.078050733 0.058458365 0.83292502
0.070409089 0.059891168 0.83265859
0.080373935 0.056295048 0.83337748
0.08193744 0.057246331 0.83678311
0.081090607 0.054520965 0.84270877
