# .PCD v0.7 - Point Cloud Data file format
VERSION 0.7
FIELDS x y z
SIZE 4 4 4
TYPE F F F
COUNT 1 1 1
WIDTH 1081
HEIGHT 1
VIEWPOINT 0 0 0 1 0 0 0
POINTS 1081
DATA ascii
85.205643 23.93866 13.366882
84.242401 22.080017 16.104248
77.885025 22.670349 14.548492
87.041946 23.338135 13.097565
82.655182 23.256165 13.691345
79.610504 23.69458 13.496277
82.469147 23.976013 12.167236
85.645035 24.577515 11.843536
81.548615 24.061157 11.424927
78.229263 24.637939 11.408783
82.533386 25.132263 10.759827
81.22963 20.000183 17.690704
78.685135 19.780762 17.615143
81.592743 20.443665 15.833984
76.961868 20.56134 15.23941
86.715759 21.349609 14.020081
83.794266 22.661621 13.186279
82.484207 22.702148 12.174042
78.301147 22.528992 11.773834
80.905365 23.474548 10.972321
79.638275 18.643921 16.753876
76.698334 19.257263 16.19574
81.299713 20.133606 15.38681
81.117447 19.554565 14.999023
79.761627 19.911987 14.887756
83.829773 20.392334 13.512909
80.976471 20.626709 14.414917
73.639252 20.332947 13.834106
78.234695 21.525391 12.393066
74.449493 21.536133 12.282654
73.735565 21.236877 11.845947
80.732193 22.030457 11.333649
81.725555 23.02063 10.577637
80.672012 22.395752 10.579895
82.089233 17.085632 17.024963
73.970917 17.804321 16.260376
84.800156 19.741943 14.301758
86.397293 19.754333 13.240662
85.178131 19.591797 14.001892
73.347031 19.433105 13.538513
77.878922 21.357605 11.110046
75.242828 16.469666 16.048706
83.048355 17.278564 15.597504
77.301849 17.272034 16.153503
86.535553 18.056274 14.905396
79.661911 17.754028 14.333954
87.18251 18.006836 13.805084
89.211258 18.416504 13.014984
75.221649 18.818909 12.475464
85.769867 19.481628 12.461151
74.395828 19.33313 12.654785
88.234283 20.784058 10.5242
88.003723 20.37854 10.773193
83.753799 16.099365 15.964539
73.86969 16.518738 15.12265
71.317352 16.083618 15.345734
77.848343 17.198425 14.007507
76.397186 17.496399 14.010468
89.525833 17.669678 12.730469
74.520111 17.901978 12.758728
73.430756 18.58728 10.600098
70.481873 18.500854 10.600525
73.185852 14.165649 16.491028
70.784882 15.09314 15.7995
79.981628 15.32373 14.781433
78.079132 15.661499 15.100189
72.300812 15.960999 13.110718
90.684631 16.473267 12.96521
88.033707 16.393555 12.975189
69.143341 16.574097 12.462219
72.860504 17.458496 10.730957
76.995682 13.152588 17.435181
82.112137 12.687561 16.732666
75.324448 13.766418 15.606445
72.057709 13.678589 16.040649
86.203613 14.660156 13.471069
70.119507 16.437134 11.370483
76.881104 12.07373 16.419067
68.421295 11.823303 16.060883
70.578217 13.094299 15.17627
79.601761 13.400146 14.858276
72.376129 13.428833 15.01947
76.054947 13.626099 13.967957
69.986237 14.208984 12.36731
64.435669 14.223389 11.963379
79.888138 10.649048 16.605499
70.138184 11.54834 15.906006
78.491684 11.495117 14.645203
74.993591 11.972656 15.124176
73.457275 12.104797 15.421936
89.454712 13.000916 12.67334
71.299927 13.506592 12.899109
69.258087 12.745483 13.1203
68.607971 13.776428 11.386108
67.668854 14.822021 10.556763
72.136261 10.167114 15.819458
84.780624 10.121704 15.080963
68.102936 10.987976 14.965485
72.305481 10.98584 14.350525
69.811646 10.580688 14.530731
66.948425 11.375366 13.808197
62.940491 11.416504 13.178223
64.150909 12.485901 12.5737
68.441803 12.961548 10.926056
66.608215 13.124634 10.656036
64.648926 12.939697 11.028107
74.423248 8.3178711 17.329834
65.858032 9.1766357 15.800232
74.36795 9.5117188 14.365967
66.453186 10.155518 13.717041
65.992889 10.644836 12.483948
63.446564 11.408447 11.532837
66.020477 12.252441 10.435211
61.310913 12.294189 10.285492
68.918884 7.9505005 15.411743
66.016998 7.579834 16.237885
62.489075 8.1964111 15.426697
67.249329 8.7363892 14.545532
66.140594 8.5874023 13.870911
63.426147 8.8450928 13.722565
62.484589 8.9597168 12.909088
61.889771 9.5655518 11.854797
63.217834 10.720825 10.486328
74.722351 7.6240234 14.55069
68.701324 7.093811 14.50354
66.326202 7.2668457 14.510681
64.950226 8.085083 14.289062
77.11087 7.788147 13.653137
60.286987 7.3036499 13.791595
61.975189 8.875 13.00116
62.004852 9.4710693 10.361206
65.87973 4.5736084 16.8479
59.361816 6.9644775 13.529114
57.929138 7.1314087 13.162903
59.179321 7.7838135 12.775177
57.411224 7.7479858 12.245911
72.668732 4.8970947 15.115906
62.884308 5.6531982 14.397339
55.891663 5.2961426 13.214478
61.38147 5.7763672 12.833496
57.742889 7.0621338 11.382568
62.821503 3.5187378 15.235901
57.265198 3.6585693 14.608398
58.445251 4.3475952 13.767609
57.800568 4.5458984 14.092102
60.659943 7.038208 10.113098
61.230896 1.5556641 15.646301
68.960358 2.7792969 14.872498
64.998932 2.5153809 15.188965
62.820923 2.4216309 14.439758
61.051025 2.56604 15.258667
56.863464 2.7423096 15.258331
72.321808 3.4318848 13.469971
55.820099 3.8404541 11.79187
59.062164 4.7922974 11.731537
55.965637 5.1817017 10.56073
54.52121 4.7021484 10.597076
57.034424 1.1004639 15.951477
60.538879 1.7446289 14.988007
54.961609 1.6547241 13.734375
58.705444 2.8812256 13.315247
57.127167 -0.62182617 15.68866
70.298584 1.1199951 13.560547
55.625854 1.0128174 13.082581
54.077698 0.73626709 13.268738
53.564362 2.0997314 12.559875
52.9888 1.755249 12.544128
50.947968 2.6616211 10.273193
56.479645 -1.8203125 17.049255
56.927063 -1.8520508 16.334351
66.978027 -1.699707 15.25116
64.165802 -0.86254883 15.07077
56.008331 -0.91955566 15.106384
53.536774 -0.92932129 15.370941
54.457733 -0.11645508 13.25116
49.51413 1.2646484 10.516296
51.715973 1.947998 10.554932
51.631439 -1.9458008 15.04895
54.805969 -1.1975098 14.132385
49.310638 -1.3594971 12.90036
54.521332 0.23455811 10.996826
54.340668 -3.5310059 16.045044
60.513428 -3.862793 15.210999
52.203094 -3.3690186 14.524902
68.531403 -2.6276855 14.01004
59.696106 -3.0031738 14.603577
58.171265 -3.2004395 14.166992
54.44104 -2.8196411 14.306549
48.663239 -2.8466797 14.255432
44.621368 -3.1790771 14.249512
51.606293 -2.0371094 12.267822
49.590027 -1.4476929 11.541931
47.038422 -1.5390625 11.240662
51.089264 -5.1220703 16.542725
62.56073 -4.5430298 14.951172
56.461761 -5.3259277 15.503815
53.714142 -4.3303223 15.447815
47.003845 -3.9007568 13.396667
47.828278 -3.2169189 12.857635
48.249298 -2.380127 12.321869
46.201141 -2.531311 11.549011
52.708374 -6.19104 15.133057
51.995605 -6.2185669 15.635864
49.433319 -5.8376465 15.601135
51.773987 -4.0825195 13.201599
41.727753 -5.0244141 13.374329
45.720825 -3.9156494 11.599304
43.941711 -6.3601685 14.989685
45.070679 -5.4311523 12.913269
50.030487 -7.998291 14.39978
46.311798 -7.4289551 14.036407
48.529633 -6.8433838 13.500244
46.339355 -5.8793335 11.240631
43.749969 -5.0227051 10.421692
42.322113 -5.4130859 10.821716
44.903046 -10.013611 16.433105
56.167938 -9.7280273 15.036377
47.867981 -9.329834 14.78302
44.113739 -8.8709717 14.723328
38.585144 -8.9400635 13.865784
60.46814 -7.2952881 12.235474
44.1073 -7.8323975 12.261169
42.145844 -7.586853 12.699219
40.038544 -6.6898193 11.393616
49.458191 -11.068054 15.53595
42.327667 -9.43396 13.727966
38.085083 -8.4941406 11.79483
40.561676 -7.7802734 10.623718
47.271393 -10.883362 14.46994
38.990173 -10.748535 14.232056
44.545685 -10.036133 13.095825
43.370026 -10.244751 13.817932
39.674133 -10.195312 13.639679
41.902893 -9.8300781 12.793152
38.014771 -9.2969971 10.989624
37.620697 -9.0831299 10.635834
38.015533 -12.776489 14.479645
39.005646 -11.659668 13.983734
38.922089 -10.554565 11.984406
36.950958 -10.62915 10.935974
38.899933 -9.2858887 10.180481
45.531311 -14.270813 15.59903
53.024902 -13.255005 13.902863
34.399689 -13.580139 14.24115
34.296417 -12.259399 11.617126
42.529846 -15.163208 15.136963
41.216339 -14.230225 14.445496
33.020844 -14.62262 14.195953
41.295532 -14.070129 13.478058
36.195862 -13.695679 12.24881
34.359833 -13.947266 12.543579
31.381775 -12.690552 10.257874
33.99881 -16.571533 16.007111
34.475861 -16.240967 16.09198
48.738953 -15.483032 14.776245
44.465302 -15.641235 14.864075
41.077362 -16.215454 14.32782
42.509094 -15.216675 13.701477
35.407745 -15.547485 14.121094
30.924591 -15.697205 13.972534
37.661285 -15.201782 12.549011
36.332642 -14.933655 12.92334
36.171356 -17.587158 15.959137
36.885681 -16.755493 14.632446
32.109039 -15.901123 13.394043
33.402832 -15.406128 12.562256
28.460846 -15.19751 12.198425
36.04837 -14.998535 11.904724
36.576141 -18.783691 14.770172
29.270233 -17.442749 13.294891
24.500793 -17.214966 12.847656
28.493347 -16.333374 12.357422
25.994965 -16.736816 11.234375
27.790802 -15.94043 11.40036
26.775055 -20.558228 15.885223
28.03598 -18.978882 14.438416
44.694946 -18.075378 12.87027
28.126831 -18.061646 13.069763
31.717712 -17.74884 12.530151
24.383148 -16.927368 11.27597
34.824951 -19.624268 13.70105
25.36319 -19.457764 12.620117
38.647797 -21.850098 14.138092
29.014801 -21.936646 14.341064
40.512054 -21.12854 14.42395
25.706421 -21.059692 14.232483
31.032501 -20.617188 13.095062
29.600189 -21.010498 12.733124
22.528961 -21.160706 13.040527
24.886932 -22.137573 13.925049
23.008148 -22.32666 14.285278
34.526123 -21.408936 12.76416
24.292816 -21.068726 10.820312
24.115753 -20.465088 10.380127
22.531281 -20.657471 10.424133
20.856964 -20.608643 11.039032
23.322205 -23.227295 13.574646
26.414642 -22.08252 11.497406
21.627838 -21.509277 11.024475
20.66272 -21.262329 10.351715
18.441742 -22.039734 10.234161
20.525757 -26.546814 16.307831
20.433746 -25.128601 13.948059
27.304535 -24.030762 13.414978
17.283173 -23.816406 11.36853
19.779633 -22.237122 10.097107
16.867065 -25.59021 13.098724
21.552246 -24.776978 12.701843
25.306763 -25.098755 11.76123
19.681183 -25.002563 11.76947
24.303589 -28.0047 15.349976
28.602264 -26.255493 13.229187
28.004456 -25.597778 12.273743
17.259064 -25.731567 11.296417
16.29895 -24.949036 11.126221
15.643158 -28.377869 13.751221
23.272552 -27.527283 12.89682
18.865936 -26.932007 12.453247
15.845276 -26.737427 11.916199
32.067963 -26.232178 11.128723
15.549042 -26.08783 10.195618
18.345703 -30.155945 15.459045
19.949615 -29.3396 14.503479
18.076263 -29.31543 13.10791
18.472687 -28.427856 12.769104
14.103668 -28.604126 12.423218
19.95401 -30.99823 14.886475
16.350311 -30.946289 14.720581
9.3623352 -30.300781 13.336426
26.61615 -29.437988 12.846222
29.249603 -29.527466 11.409424
10.03952 -32.200684 14.164459
21.988312 -31.234497 13.983215
17.554474 -31.372192 12.369385
14.911987 -31.128418 12.707214
12.417114 -29.926941 10.174072
15.216522 -32.724609 12.67981
16.952148 -31.087952 10.990234
8.6068115 -31.237732 11.061859
12.864532 -31.075012 10.565063
-7.978241 -34.482666 14.414612
10.349518 -33.772034 12.961639
8.7949524 -33.689758 12.647552
10.564362 -32.170837 10.376465
10.025696 -32.44458 11.211243
-9.9727783 -35.861084 14.174011
17.541321 -34.87146 13.197937
3.4310608 -33.203552 10.765228
13.413696 -36.654053 14.094116
13.480804 -36.221863 13.567261
22.001312 -35.539307 12.517059
10.545135 -35.472168 12.854156
6.9850769 -35.340332 12.041351
10.812012 -36.166565 11.787689
5.6108704 -36.505615 12.055939
-9.7184143 -36.203247 12.11853
-13.99118 -39.186096 15.09198
-3.0790405 -37.554688 12.760498
3.461853 -36.688416 10.814941
-1.9918823 -37.812988 10.938782
3.7132568 -37.754272 10.401337
2.2486877 -38.749023 10.586731
-0.0066223145 -39.133667 10.091797
-17.60321 -42.814148 14.749084
-2.0039978 -40.802429 10.660217
-13.142853 -40.482544 10.464417
-6.1662292 -41.437439 10.972748
-8.433075 -41.635864 11.557892
-12.317261 -43.986267 13.365784
-20.278168 -46.417847 15.355164
-22.524689 -46.089417 14.695618
-18.286316 -46.03125 13.600281
-20.000427 -44.207642 12.049866
-15.80545 -44.019226 10.555115
-21.416718 -45.292542 11.841187
-5.5578308 -44.731506 10.259003
-26.817078 -48.294678 14.310699
-9.266571 -46.280396 10.778778
-14.82074 -45.62793 10.038605
-24.667633 -48.923218 13.301819
-25.50296 -49.12793 13.517029
-15.68045 -48.054077 11.15802
-13.081696 -49.064331 10.731537
-30.076294 -52.974243 13.389587
-30.008026 -51.234619 12.202118
-28.83371 -53.984741 13.629944
-31.862488 -53.701172 13.358093
-27.688599 -52.382629 10.888855
-37.190338 -56.205811 15.64743
-34.031769 -54.635498 12.252777
-19.800598 -52.582886 10.637756
-39.128082 -56.930847 14.736328
-34.499725 -56.132385 11.593018
-21.573456 -56.004395 10.397522
-41.625275 -60.043335 14.202667
-42.941315 -60.160034 14.177368
-27.457489 -58.031677 11.585907
-41.307404 -60.407715 12.635132
-37.758392 -59.767578 12.207489
-44.179932 -59.892944 11.942932
-25.165192 -58.598145 10.788086
-46.667847 -62.633972 15.098755
-39.034088 -60.299438 10.848907
-41.322601 -59.517456 10.377625
-45.78476 -64.294739 13.947998
-48.690399 -65.314575 12.764465
-47.546906 -64.460938 12.991119
-33.683533 -64.394043 11.46875
-49.143219 -63.718994 11.214874
-51.283539 -66.77832 14.610992
-50.046295 -66.382202 13.83136
-30.873138 -65.396729 10.03833
-55.202606 -69.52771 14.014618
-53.700531 -68.582642 13.294922
-40.859467 -67.514099 11.098206
-35.295502 -66.238525 10.034363
-38.213959 -66.584351 10.434631
-57.922638 -69.406616 13.348389
-54.169312 -70.513 13.405334
-44.573486 -69.391418 11.181488
-56.415405 -72.532593 14.16803
-59.616089 -72.096008 12.974365
-61.410431 -71.910889 12.52594
-54.683655 -70.380737 10.242706
-58.241821 -70.458496 10.416626
-61.622528 -74.487854 13.641479
-46.288422 -72.363464 10.187561
-63.574005 -75.484131 12.117432
-59.463226 -74.022156 11.364319
-62.088287 -74.741333 11.762451
-53.198364 -74.257507 10.22937
-62.332916 -76.710022 13.585815
-61.980682 -76.32312 11.717896
-60.871857 -75.270569 10.401184
-64.842163 -78.458984 13.99469
-64.621307 -76.651001 11.162994
-65.595642 -78.362793 12.635437
-58.372559 -78.614868 11.747864
-65.44809 -79.257507 11.844299
-67.196747 -80.052246 10.577209
-69.154419 -81.765137 11.760742
-71.539673 -81.258911 11.916077
-70.429291 -81.098022 11.057159
-72.846741 -82.635254 10.56189
-66.231232 -83.479553 11.057587
-75.293549 -86.202332 14.374756
-63.443817 -85.009644 11.212219
-70.916168 -84.45752 11.141632
-72.821899 -86.106079 10.42572
-76.793152 -87.956055 11.615784
-69.151398 -86.990784 10.525116
-79.116547 -89.446777 13.247192
-80.674652 -91.899292 10.696777
-79.820099 -98.387085 10.036621
-77.113907 -110.26846 10.251068
-75.595184 -107.09021 10.451538
-74.362991 -106.90579 11.029358
-74.394348 -106.10516 10.348389
-71.349106 -103.42282 11.649353
-72.837677 -103.78821 11.19577
-71.4478 -103.74109 10.806335
-70.555984 -103.953 10.553223
-72.534821 -101.1665 12.985657
-73.064178 -101.3541 11.935516
-69.158722 -101.42786 11.716003
-69.20401 -102.53339 11.342712
-69.180328 -102.8559 10.179382
-72.613205 -101.00433 11.754395
-63.68631 -100.70044 11.240906
-67.648819 -100.97742 11.018372
-63.372467 -101.82635 10.543091
-70.843933 -99.83728 11.033539
-70.647919 -98.09198 11.77594
-70.220505 -98.42865 12.310303
-65.843094 -98.026642 12.47995
-60.923111 -98.712463 10.300598
-67.551544 -96.951904 11.141998
-64.158829 -96.21106 11.726685
-64.4543 -96.731018 10.419983
-67.022919 -93.10675 14.810242
-67.488663 -95.388336 10.431763
-63.475266 -92.832214 12.516174
-63.301514 -93.286133 11.752014
-59.352325 -93.236481 12.153778
-66.636932 -94.185242 10.594055
-62.578018 -93.879272 10.454285
-56.922226 -93.707336 10.786438
-62.728592 -90.221313 15.016724
-65.283432 -91.263306 13.016113
-68.123856 -92.293396 12.604828
-62.093369 -93.306885 10.654907
-60.218445 -92.938354 10.568878
-60.427155 -90.210175 14.259277
-62.836838 -91.014404 12.488953
-62.242081 -91.429718 11.97467
-63.244888 -91.611542 11.088379
-60.819031 -91.298096 10.94342
-60.001251 -91.825378 10.915222
-54.396011 -91.64325 10.828857
-61.877365 -92.675964 10.35379
-54.107178 -90.523438 11.226135
-54.369522 -88.279449 12.393677
-61.023117 -89.397217 11.740295
-62.88623 -89.392578 11.148102
-59.524445 -89.644104 10.815247
-58.064911 -89.558411 10.391052
-54.459625 -89.395325 10.704895
-55.100128 -86.577759 13.636963
-58.678146 -86.65863 12.904388
-58.227676 -87.410278 13.275513
-56.475922 -86.767395 12.701935
-56.498215 -89.257874 10.222504
-52.716049 -88.937958 10.151764
-58.410233 -86.002502 13.160461
-52.64711 -87.121826 10.581146
-49.054443 -86.995911 10.568726
-53.700653 -83.786255 14.648743
-53.821976 -84.342102 13.190552
-55.201965 -84.855408 13.078033
-53.256302 -85.122253 11.740967
-50.149796 -85.260498 11.720581
-50.25708 -86.298828 10.722595
-54.235245 -82.759033 15.372711
-53.297501 -84.806641 11.062195
-49.34816 -84.585815 10.884247
-47.51503 -84.249634 11.086182
-52.44017 -82.50238 13.93808
-54.776932 -82.974304 12.929993
-49.583786 -83.471924 11.508118
-52.023865 -83.277039 10.936035
-51.135208 -83.659668 11.134399
-51.700851 -81.07843 13.82605
-54.216171 -82.257629 11.407745
-52.447647 -82.770874 10.575012
-49.00705 -80.867981 12.5271
-53.591995 -81.40271 11.859589
-52.635162 -80.821594 11.381348
-49.934799 -78.135864 14.604919
-49.0923 -77.836243 14.737183
-50.524857 -78.574707 13.950317
-50.653915 -79.317993 12.557678
-49.828888 -80.858521 10.214783
-46.453995 -81.163818 10.231384
-47.904312 -77.672363 13.716797
-46.683563 -78.71228 12.054749
-48.041306 -79.077271 11.706909
-43.162201 -79.247498 11.160278
-44.086014 -79.284851 10.691223
-50.615402 -76.086487 13.867188
-46.977982 -76.839111 13.061157
-44.985229 -76.476624 12.458038
-45.539749 -77.731323 11.957458
-42.984085 -78.19342 11.067505
-47.589539 -74.974243 13.95874
-39.725937 -76.169434 11.77417
-36.250336 -77.056274 10.236267
-44.083511 -74.006958 13.932434
-48.166138 -75.814148 11.432526
-45.454056 -75.639465 11.608032
-44.593109 -75.51062 11.449646
-41.738235 -75.359192 11.228027
-39.322769 -75.36908 11.676453
-42.347549 -72.279785 13.773071
-39.235474 -73.031494 12.421295
-44.278 -73.428345 11.907471
-37.767883 -74.93042 10.144104
-44.117371 -71.041138 14.180145
-40.938293 -73.080078 11.75415
-38.954651 -73.926514 10.412018
-35.77034 -74.157104 10.187683
-44.917221 -70.774231 13.740997
-41.970047 -70.852661 13.784668
-37.480453 -71.164551 12.677063
-35.891205 -71.135132 12.481934
-42.017181 -72.621338 10.854736
-38.299942 -72.718811 10.585205
-34.963974 -72.797241 10.186768
-39.149734 -69.027405 14.069702
-41.798553 -69.779358 13.119995
-39.653137 -69.649048 12.460632
-43.686981 -70.113953 12.179474
-34.635513 -70.812134 10.972107
-33.02475 -70.956787 11.001648
-36.89949 -67.285645 14.692932
-39.546112 -68.707886 12.9729
-41.008163 -69.59259 12.105316
-37.406281 -69.198181 11.471405
-32.585083 -69.665894 10.761108
-24.898865 -69.790283 10.201233
-35.101257 -70.580078 10.45636
-38.416519 -67.822021 12.847992
-34.341583 -68.228882 12.101471
-34.655502 -69.549866 10.194336
-36.398285 -65.690125 13.601624
-33.122208 -66.672119 13.066101
-30.339828 -67.403503 10.382935
-35.364227 -63.29834 15.070923
-27.763702 -65.388062 12.306366
-26.098312 -66.04364 10.410706
-32.089783 -62.832397 14.442963
-35.232452 -63.858459 12.575989
-23.430069 -64.704346 11.21936
-32.257584 -66.0495 10.179626
-28.426651 -65.034058 10.218536
-26.03688 -65.400085 10.722229
-31.39241 -61.754395 15.006287
-26.76712 -62.405273 12.776031
-33.01564 -63.672302 11.652344
-30.732498 -63.983765 10.696381
-24.486572 -63.958008 11.082886
-29.026001 -61.534546 14.04715
-28.07692 -61.228821 13.630798
-32.049438 -62.203735 12.914673
-32.981644 -61.731079 12.119507
-26.631531 -62.082275 12.115051
-28.833435 -62.585449 10.958893
-30.966232 -63.400879 10.460754
-30.212296 -61.228394 12.358459
-23.674408 -61.14209 11.284607
-28.739746 -58.661987 13.951965
-26.766571 -58.296509 14.215088
-27.591888 -58.753662 13.514435
-28.356735 -60.989197 10.998138
-26.24881 -61.047974 10.901154
-25.448578 -60.40741 10.347961
-21.529083 -61.134216 10.659302
-27.59848 -58.520142 12.834167
-27.796143 -58.978027 12.054199
-29.667007 -59.338623 11.267029
-22.049194 -59.823853 10.582397
-17.572601 -59.555176 10.379028
-26.535645 -55.823059 14.907257
-21.817474 -55.98999 13.968567
-27.664734 -57.549927 12.288391
-21.982239 -56.922607 12.37207
-23.781799 -58.037842 11.565857
-17.450348 -58.249084 11.467773
-24.791443 -58.596863 11.070923
-14.827209 -57.249756 10.617371
-21.912231 -54.490051 13.418915
-19.202728 -54.620972 12.471802
-17.371063 -55.389526 11.963196
-16.961273 -54.827759 12.401855
-21.058868 -53.510254 12.35199
-19.507782 -53.854187 12.455627
-19.797455 -54.371094 11.628235
-23.316132 -54.62439 10.445862
-18.094635 -55.271301 10.303345
-12.880096 -55.149902 10.362427
-20.110687 -52.37793 12.639099
-16.823761 -52.807251 11.697113
-25.152649 -53.956177 10.58963
-18.450867 -51.187256 12.522522
-17.472015 -51.113708 12.668335
-17.720886 -52.52771 10.868225
-13.689941 -51.925354 11.055176
-9.5903931 -52.543335 10.575134
-16.711792 -49.713928 13.383179
-21.126282 -50.970337 12.105103
-18.014191 -51.121704 11.971405
-16.247345 -51.188904 11.550568
-13.306549 -50.940979 10.500977
-11.950806 -48.283081 13.097961
-13.198547 -49.517578 11.063812
-10.839325 -48.179565 11.8349
-15.238556 -48.51947 10.885803
-11.915497 -49.478088 10.858032
-18.193726 -46.789062 12.806946
-12.980103 -46.203796 13.374023
-7.7680054 -46.342285 13.156494
-17.307739 -47.168152 12.181274
-16.612946 -46.592651 11.874878
-13.384735 -47.734436 10.974091
-7.9905701 -47.645874 11.744659
-6.0519714 -48.366455 10.251892
-10.99231 -45.367188 12.147522
-3.5828247 -46.527344 11.378601
-2.1171875 -46.621216 11.325134
-10.214264 -44.259888 13.791901
-5.2880249 -44.481506 11.863892
-15.647797 -45.341858 10.913879
-9.0680237 -45.84967 11.022186
-12.257904 -45.980957 10.825562
-9.3162842 -46.172119 10.173798
-3.97229 -45.680298 10.250916
-3.132782 -46.004761 10.085022
-6.481781 -41.620544 14.691986
-9.3668518 -42.505554 13.88916
-3.5256042 -42.859253 12.981171
-2.1880798 -43.835999 11.874695
-2.4807129 -44.131042 10.571106
-1.9647827 -45.13147 10.176025
11.013123 -40.904846 13.749298
-8.0620117 -41.705627 13.007019
9.5262451 -41.572388 12.778992
-14.192535 -42.945068 12.099243
-4.3473816 -42.338013 12.171814
-8.4354553 -43.233826 10.96167
-6.5752258 -43.207886 11.654663
-5.6183167 -42.719727 11.084717
0.10467529 -43.154663 10.342316
3.7698364 -43.453247 10.645477
-8.5961609 -39.722046 14.651917
11.276947 -40.965698 12.82196
-9.6271667 -40.93335 12.413757
-6.2883606 -41.612671 12.152954
-5.7506714 -40.988892 12.704132
8.5516663 -40.654114 12.132751
6.9858704 -41.577148 10.825867
4.9433594 -42.223022 10.359131
6.3060608 -42.701477 10.463318
10.707581 -42.621216 10.663147
11.704437 -42.402832 10.027405
-6.7913513 -39.515381 13.249939
9.3310852 -39.746704 13.064575
-8.4180603 -40.535156 12.110779
10.333466 -40.657593 11.79071
14.73056 -40.606384 11.59082
-8.8453369 -40.904419 11.34137
2.1286316 -40.953613 10.391876
6.5683289 -40.713989 10.679443
15.196503 -40.931824 11.319153
3.4351501 -40.752808 10.240936
8.986145 -41.37146 10.30658
16.460419 -40.946045 10.165039
11.706879 -37.99231 13.681763
7.6760559 -38.342407 13.438232
14.64267 -38.913818 12.39624
15.895233 -38.599426 12.166595
17.209442 -38.932251 11.473389
9.6930847 -37.503723 12.318146
11.807831 -37.581299 12.260742
5.1095581 -37.978699 11.775635
9.3930054 -38.561646 10.974518
15.695801 -38.389526 10.274017
17.930328 -38.949951 10.648682
6.9241638 -38.815796 10.189697
14.510834 -36.720703 12.744598
16.523193 -36.300293 12.750793
18.930817 -35.911743 13.191132
5.5987244 -36.353516 11.89679
15.91452 -37.289429 11.248596
20.669952 -36.92334 11.287964
19.126129 -33.207458 15.286499
15.319244 -34.561646 13.395172
15.976227 -35.142212 12.71347
17.06015 -35.036072 12.659271
17.944 -35.679688 11.578827
18.586578 -36.341003 11.08783
21.582916 -36.664978 10.397827
16.765594 -32.826172 14.920715
18.605621 -32.167236 14.932373
14.077484 -32.979675 14.764282
18.515015 -33.732544 13.51178
19.260712 -33.307495 13.122803
11.769226 -33.785645 12.565491
20.826355 -34.581787 11.498352
11.749878 -32.57666 13.662201
20.257721 -31.865417 13.649292
21.801697 -32.455383 13.426758
17.630859 -33.290894 11.726746
18.557281 -34.000854 11.316437
21.174866 -30.130615 15.318237
9.5518188 -32.210938 12.534454
23.093903 -32.525146 11.001556
21.850433 -29.686279 13.878693
27.554718 -29.446716 13.70929
18.402954 -29.894775 13.000061
23.839203 -30.800049 12.826935
21.599976 -30.232239 12.101929
25.698395 -31.559387 11.29541
21.94519 -32.350464 10.275269
20.791718 -28.669067 12.847321
26.634247 -28.809814 13.042511
11.709167 -30.09314 12.210754
27.281891 -29.689392 11.518555
21.945343 -27.49231 14.550964
17.47583 -27.901978 13.829407
25.495331 -27.545288 13.037598
15.247772 -28.500305 12.997528
26.849518 -28.565186 11.470825
30.592987 -28.236633 11.776489
15.246735 -29.588135 10.950256
28.536835 -29.846436 10.462677
29.765686 -26.424316 14.462982
20.252625 -26.999573 12.950623
23.153412 -26.643188 12.35907
30.120331 -26.747314 12.188629
27.538239 -24.242554 14.397614
33.442627 -24.710693 14.454041
23.737885 -25.052856 13.693359
28.563507 -25.445923 13.519379
32.227325 -25.209717 13.585938
19.244171 -25.53772 12.357086
28.333221 -26.226196 12.341766
29.702942 -25.645386 12.056396
22.322876 -26.32605 11.477722
26.35849 -26.86731 11.846771
32.099518 -26.175476 12.073303
25.750854 -26.779785 10.904877
33.179413 -27.026611 11.267944
31.734619 -27.70636 10.153198
25.819519 -23.216064 15.236633
25.534393 -24.085754 13.593079
32.227081 -24.371826 13.500549
33.250183 -24.690613 11.707275
29.927948 -25.226685 10.90329
22.809906 -22.558655 14.136719
33.191498 -23.94751 12.292664
35.432617 -23.391663 12.449493
20.011597 -24.229126 11.901459
30.511383 -21.005249 14.682617
23.69751 -21.837158 12.672974
36.887848 -21.912231 12.981689
36.457245 -23.617004 11.181641
38.409912 -23.368896 11.252808
33.172729 -24.368042 10.149475
27.414703 -20.393616 13.525208
31.311493 -20.005371 13.647064
32.350861 -20.114258 13.613068
34.393646 -20.724792 14.04184
29.894867 -20.502441 12.920898
36.590363 -20.42926 12.939087
24.805084 -21.49054 12.198212
25.887573 -21.102417 12.101227
38.878387 -21.55603 11.277832
39.803955 -22.235779 11.044922
39.352509 -22.396729 10.202332
27.940094 -19.235474 14.607056
34.038239 -18.787231 13.858032
32.204346 -19.617065 13.488556
36.04657 -19.68103 12.967285
35.001617 -20.143066 12.422485
41.239655 -20.986572 11.866638
34.396973 -17.906921 14.435608
29.713531 -18.793762 13.383942
31.611816 -18.636597 12.611755
41.588074 -19.040161 12.231628
39.597321 -17.294556 13.314697
39.404388 -17.42041 12.595978
40.634003 -19.588379 9.9844055
32.690216 -15.3479 15.039307
41.557587 -14.634399 15.01062
38.107788 -15.59314 14.379211
36.015839 -16.360474 12.707092
45.426361 -16.356018 12.57373
42.588959 -17.123413 12.168579
41.714813 -18.506592 10.089722
32.966583 -13.880005 14.844391
28.149475 -14.239502 14.229187
37.31485 -14.324463 13.712891
38.48941 -14.689331 14.040863
43.285889 -15.464966 13.12323
47.865662 -15.244507 12.240662
41.374969 -16.87616 10.803101
31.838562 -12.40863 14.839813
43.537689 -12.951721 14.879883
35.462616 -12.945862 14.600464
39.542389 -13.640137 13.609222
44.043488 -14.488525 12.959167
36.151794 -14.475464 11.883362
39.699402 -14.669983 11.89093
44.688202 -14.929443 11.484253
37.677856 -12.234192 14.188446
50.21109 -13.591431 11.747314
44.278198 -13.88916 11.346588
47.679962 -14.03418 10.880615
39.023468 -10.083496 16.263184
46.043884 -10.173462 15.86087
39.454193 -10.157593 15.043762
43.937531 -10.329102 14.506592
45.695953 -11.117065 14.000122
38.073578 -11.848389 13.332947
46.676453 -11.578979 13.061401
49.16449 -11.522339 13.08252
45.718719 -12.212769 12.575256
45.852692 -12.397095 12.574921
49.359741 -12.161255 11.77594
41.197418 -9.75 14.843567
43.827637 -9.5046997 14.689606
47.701385 -9.7521973 14.110779
44.688934 -10.589722 11.995117
48.952759 -11.161743 11.74408
43.56485 -7.6820068 15.531677
39.603119 -8.746582 14.810455
46.706696 -8.3693848 14.594574
40.996796 -9.178772 13.630127
47.542236 -9.1741333 13.032532
48.018219 -9.2145996 12.74173
46.423981 -9.5806274 12.017456
50.818268 -10.502075 11.453735
50.414032 -10.672119 10.308533
44.69577 -6.3908081 16.032501
53.294098 -8.1847534 12.750763
50.764038 -8.8789062 11.940369
50.437531 -9.9769287 10.705078
51.767883 -9.5897217 10.373688
52.993134 -9.8375244 10.390228
47.854523 -5.8908691 15.611664
43.613556 -6.4168701 13.974609
41.370728 -7.1638794 13.268188
38.464996 -7.430481 11.90976
50.576721 -7.1080322 12.427917
51.504089 -7.8250732 10.734039
54.239594 -5.2519531 14.790131
53.67453 -5.12146 13.400635
49.985596 -6.2012329 12.788147
55.976105 -6.8807373 10.564514
49.46759 -3.6610107 15.530579
51.180267 -3.4205933 14.608704
44.460968 -4.0820312 13.622955
50.983185 -4.7067871 13.609985
45.000458 -5.1324463 13.106415
49.153717 -4.6517334 12.2724
51.11853 -4.6696777 13.28772
55.355408 -5.8006592 11.38443
51.460907 -2.5473022 15.670837
51.82312 -2.7371216 15.013214
53.314331 -2.6560059 13.789093
55.719086 -3.8851318 13.158813
59.303375 -2.9012451 13.414917
56.719879 -4.7423096 11.374878
53.186707 -0.68554688 16.850708
45.751862 -0.97290039 14.546509
50.49881 -1.4890747 14.221924
54.132477 -1.7160645 14.039246
48.285034 -1.7738037 13.616211
52.924438 -2.435791 12.839203
57.814056 -2.3414917 12.613525
42.538177 -3.2564697 12.316071
57.829346 -3.1560059 12.104492
59.546234 -4.3284302 10.237
44.97879 -0.92004395 13.646057
52.846893 -0.72045898 13.316345
57.26059 -1.8952637 11.979187
60.284912 -1.7850342 12.000122
57.532532 -2.6162109 11.331329
53.920807 2.5063477 16.479736
59.36557 0.96612549 15.06424
51.643768 0.94360352 14.27655
49.831604 -0.41882324 13.139374
56.595215 -0.83105469 11.086975
61.840118 -1.2990723 10.815857
56.20401 2.756958 16.460876
56.570099 3.0977783 15.443909
61.38974 2.6531982 14.854706
55.509735 1.9668579 14.203735
57.235474 2.2706909 14.278381
59.75235 1.4244385 14.408691
57.796722 1.5184326 13.77063
60.513458 1.5327148 13.755066
58.057098 1.2457275 12.316986
61.016052 0.78863525 13.156891
57.806854 0.48016357 12.177704
60.960907 0.62139893 12.178162
63.121918 -0.67041016 10.323914
58.411957 3.5852661 15.457336
58.601898 2.8154297 14.735596
61.928192 2.6679077 13.673645
49.186157 2.2423706 12.901184
64.493774 3.0004883 13.303528
48.519257 1.3823242 12.482971
53.918671 5.2324219 15.423401
61.969025 4.7307129 14.859711
61.481476 2.3685913 12.066406
67.668091 2.46521 11.986847
67.621887 2.5352783 11.136169
56.488586 5.9874268 15.015503
59.391113 5.6091309 14.74115
59.972839 5.2766113 13.68515
67.647461 4.7322998 13.929321
64.415802 5.1439209 13.117462
65.897675 3.9818115 12.066559
66.129333 3.5545654 11.32959
63.837067 2.4294434 10.31424
67.659912 2.4594116 10.147156
61.335114 8.3272705 17.162506
52.687378 6.7730713 14.978394
67.060211 6.567749 14.949524
66.870361 6.7388306 14.085999
66.704224 5.1071777 12.207184
71.00528 4.9787598 11.398132
63.488342 9.2036133 17.431824
57.107697 8.7028809 15.692444
59.313629 8.4334717 15.447754
63.341919 8.3414307 15.217957
69.737457 7.4643555 13.842133
74.050232 6.8392944 12.275116
67.739166 9.7281494 16.706055
62.860626 9.347229 15.178528
74.034424 9.0999756 13.904633
63.764587 7.7510376 13.185608
68.725128 7.7825928 13.144928
71.86026 8.1786499 13.481293
52.040314 6.8275146 11.819
66.047241 10.238892 15.186157
70.767609 11.026733 15.58667
58.772766 9.6012573 14.519348
69.338776 10.176147 13.832184
65.836029 9.6005859 14.049133
67.44751 8.7553711 12.826538
69.783691 8.3449707 11.270966
73.894806 12.615356 15.864319
66.579834 11.665527 15.92215
57.838257 11.367554 14.432312
63.924133 10.744995 13.695496
71.577271 11.105835 14.231262
73.168915 10.844604 13.765991
73.879456 10.163879 13.337463
73.182068 9.699707 12.50235
67.683594 12.327393 14.948181
68.045715 12.776428 15.017822
70.568268 13.321899 15.086456
68.22525 11.873169 14.370789
70.588623 12.608765 14.124939
75.802765 12.474304 13.657745
62.389069 11.63916 13.850098
75.784515 11.765015 12.678223
76.09494 10.330505 11.21936
68.469147 15.47229 17.685303
61.5961 14.097229 15.290466
70.69342 14.13855 15.420654
66.768799 13.425781 14.450684
67.427826 13.230408 13.435059
76.628204 13.139587 14.175079
58.948364 12.682556 13.197113
73.108704 11.548096 10.477203
76.299103 10.564331 10.175354
68.015686 16.553101 17.441956
72.285187 16.715332 17.281738
76.700775 14.416138 14.501404
76.724701 12.890747 11.921753
81.126129 12.077148 10.455383
71.643219 17.150146 15.756866
77.564423 16.681885 15.571259
61.308746 15.799927 14.482697
75.195312 16.246216 14.186676
79.191315 13.834717 11.026031
76.17392 18.955322 17.377686
69.559296 18.033203 16.352844
70.988525 18.079163 15.341522
73.691956 17.941101 15.382751
72.894745 16.802856 13.497742
79.25235 15.802368 11.850433
76.456787 14.740417 11.203308
77.533936 14.256836 10.511047
69.883087 18.940613 16.160736
65.754211 18.060486 15.181427
79.42984 17.15271 12.359375
79.651459 16.458984 12.099884
80.435242 16.492615 10.752808
81.808746 16.206482 10.545959
70.564392 20.271362 16.590759
78.496613 20.805908 15.937744
80.476532 20.79657 15.993591
75.786957 19.508179 15.500061
79.962311 20.202881 15.277924
74.956635 19.557251 14.290497
79.161774 18.442383 13.467133
81.741272 17.460449 11.948456
80.824127 17.196167 11.401489
78.935822 21.001038 16.179077
78.816132 21.138184 14.553528
67.750916 20.416199 14.611023
71.732849 20.049683 14.617188
82.975983 19.538147 12.25
79.472473 18.840698 11.819702
83.44931 17.91864 10.772522
71.3974 22.369873 16.498901
75.365356 24.939819 17.47821
76.451813 24.317078 17.249817
77.047272 23.369751 16.313599
76.297882 22.901611 15.047913
73.10434 22.079529 14.027557
78.707062 24.510376 15.432129
80.995575 23.505249 14.128113
81.059143 23.55542 13.217102
83.248383 21.594971 11.047241
71.710083 25.279907 15.583923
78.753204 26.270447 15.804932
70.035492 24.153503 13.640564
