# .PCD v0.7 - Point Cloud Data file format
VERSION 0.7
FIELDS x y z
SIZE 4 4 4
TYPE F F F
COUNT 1 1 1
WIDTH 627
HEIGHT 1
VIEWPOINT 0 0 0 1 0 0 0
POINTS 627
DATA ascii
-0.076848276 0.16041088 0.66297281
-0.075331457 0.15862249 0.66560876
-0.074099943 0.15802963 0.66547424
-0.074130997 0.15820968 0.66650963
-0.071088552 0.1557233 0.66815954
-0.072576404 0.15630141 0.66807532
-0.07118614 0.15661128 0.66831344
-0.070293933 0.15693589 0.66825926
-0.072276846 0.15342775 0.66942507
-0.072805017 0.15442841 0.66979665
-0.068899252 0.15465024 0.66984403
-0.06894356 0.15553324 0.66908127
-0.068918422 0.15669921 0.66939414
-0.072353929 0.15440632 0.67018974
-0.063426688 0.15468362 0.6707114
-0.06738884 0.15502076 0.67058611
-0.063111536 0.15585612 0.67009562
-0.070584588 0.15443259 0.67156106
-0.070390165 0.15290655 0.67268771
-0.069963209 0.15261665 0.67212623
-0.065586179 0.15226112 0.67238599
-0.06066351 0.15448092 0.67290127
-0.067293756 0.15287004 0.67399144
-0.063902028 0.15198611 0.67433238
-0.064195834 0.15337622 0.67454791
-0.066771105 0.14775679 0.67544127
-0.067230918 0.15268791 0.67569894
-0.063221082 0.14958943 0.67684227
-0.063046217 0.15047807 0.67683929
-0.059097528 0.15010199 0.67667747
-0.066379949 0.1519362 0.67665303
-0.062321033 0.15189639 0.67698711
-0.056665715 0.15151612 0.67696595
-0.06247846 0.14610866 0.67782152
-0.065030597 0.14836422 0.67794031
-0.067870051 0.1492451 0.67726195
-0.06183691 0.15143235 0.6773783
-0.059962027 0.15131699 0.67773932
-0.060176216 0.14675273 0.67821562
-0.062583506 0.14868909 0.67842197
-0.061988022 0.14934231 0.67832524
-0.062989816 0.15019944 0.67861879
-0.060563896 0.15016218 0.67896211
-0.059745833 0.1504533 0.67852211
-0.054140601 0.15042847 0.67872214
-0.061620902 0.15137106 0.67807472
-0.053852752 0.14951724 0.6794852
-0.054117579 0.14737231 0.68082565
-0.060769886 0.14851074 0.68019509
-0.062632352 0.14902081 0.68050015
-0.059270043 0.14943118 0.68045205
-0.057810117 0.14975139 0.68074107
-0.054205261 0.14939387 0.68072182
-0.054850448 0.14543799 0.68166041
-0.058427565 0.14611447 0.68196303
-0.057977155 0.14617591 0.68112701
-0.05622505 0.14634153 0.68197197
-0.056243394 0.14974208 0.68108547
-0.052461311 0.14963607 0.68139648
-0.058160253 0.14556038 0.6823982
-0.052393772 0.14834389 0.68274295
-0.048801161 0.14828631 0.68285751
-0.053453479 0.14314722 0.68355125
-0.053572897 0.14468583 0.68381274
-0.054952521 0.14504513 0.68342793
-0.053005241 0.14633009 0.68387687
-0.04989868 0.1464141 0.68376762
-0.05000433 0.14780125 0.68337995
-0.053989343 0.1420026 0.68406868
-0.05304591 0.14675468 0.6844933
-0.049096435 0.1467911 0.68477345
-0.047263697 0.14644425 0.68496037
-0.052192818 0.14310612 0.68501806
-0.054528303 0.14421692 0.68512368
-0.04933333 0.14568831 0.6854164
-0.051772863 0.14608516 0.685875
-0.050884269 0.14610742 0.68544465
-0.051454112 0.14247862 0.68630165
-0.053966187 0.14516374 0.6865139
-0.052196585 0.14613964 0.68649453
-0.048759066 0.14348763 0.68714219
-0.053342994 0.14433968 0.68702102
-0.052385863 0.14445545 0.68776429
-0.049690466 0.14031139 0.68844086
-0.048848264 0.14004424 0.68863171
-0.05027958 0.14109883 0.68839532
-0.050406754 0.14267619 0.68846214
-0.049578335 0.14547579 0.68832457
-0.046203319 0.14561243 0.68805265
-0.047659252 0.14083867 0.68929088
-0.046436176 0.14279708 0.68923891
-0.047793347 0.14328369 0.68910122
-0.042913526 0.1438352 0.68923157
-0.043836825 0.14425939 0.68943757
-0.050371341 0.13990711 0.6905812
-0.046732672 0.14097928 0.69034147
-0.044739403 0.14131241 0.69095981
-0.045292739 0.14238143 0.69013321
-0.042735886 0.14337966 0.6901868
-0.047346145 0.1392598 0.69149244
-0.03947952 0.14173928 0.6915713
-0.036001794 0.14351025 0.69158775
-0.043840572 0.13878712 0.69233882
-0.047919527 0.1418633 0.69205165
-0.045207758 0.14162013 0.69211274
-0.044346664 0.14169014 0.69230407
-0.041491628 0.14180076 0.69254673
-0.03907666 0.14141658 0.69231033
-0.042105325 0.13804528 0.69390744
-0.038991362 0.1395878 0.69394588
-0.044033155 0.14023805 0.69386536
-0.037520386 0.14251201 0.69346619
-0.043876216 0.13706778 0.69476801
-0.040693477 0.14018928 0.69424278
-0.038707908 0.1417729 0.69419503
-0.035523213 0.14207943 0.69410992
-0.044675734 0.13731156 0.69522101
-0.041728608 0.13731025 0.69513094
-0.037237614 0.13841738 0.69542414
-0.035648182 0.13856861 0.69554842
-0.041771587 0.14073248 0.69509488
-0.038054053 0.14100969 0.69514751
-0.034717567 0.14138874 0.69528192
-0.038909454 0.13613446 0.6965583
-0.04155688 0.13733764 0.69639295
-0.039410867 0.13783689 0.69683993
-0.043444127 0.13832003 0.6965825
-0.034390941 0.1397038 0.69659323
-0.032780208 0.13974991 0.69645339
-0.036660831 0.13471046 0.6977421
-0.039304893 0.13691755 0.69739056
-0.040765479 0.13811599 0.69706911
-0.037163146 0.13845749 0.69773042
-0.032340892 0.13930108 0.69768745
-0.024654018 0.13983741 0.69786382
-0.034856297 0.14003083 0.69705492
-0.038175546 0.136574 0.69821703
-0.034099638 0.13741884 0.69824511
-0.034410764 0.13973296 0.69807547
-0.036159236 0.13483977 0.69967079
-0.032882102 0.13579586 0.69909632
-0.030096421 0.1384754 0.69982839
-0.035128064 0.13235828 0.70098501
-0.027523454 0.13579193 0.70058769
-0.025855623 0.13775593 0.70098531
-0.031853169 0.13265872 0.7017051
-0.034993306 0.1347919 0.70176941
-0.023188956 0.13637599 0.70172822
-0.032014638 0.13796529 0.70109832
-0.028184276 0.13741161 0.70195287
-0.025794838 0.13716066 0.70138156
-0.031156929 0.13162528 0.70234758
-0.026528899 0.13387154 0.70291871
-0.032775566 0.1354904 0.7023986
-0.030491194 0.13646941 0.70261538
-0.024245717 0.13611583 0.70244056
-0.028789647 0.13233705 0.70302367
-0.02784021 0.13253938 0.70349842
-0.031811487 0.13365604 0.70302254
-0.032743014 0.13410226 0.70383364
-0.026392777 0.13427675 0.70353258
-0.028593156 0.13553096 0.70368648
-0.030725006 0.13637668 0.70323706
-0.029974213 0.1336378 0.70414495
-0.023435192 0.13451125 0.70476401
-0.028504755 0.13096009 0.70554662
-0.026532019 0.13054547 0.70572764
-0.027356334 0.13138217 0.70568979
-0.028117321 0.13468608 0.70504159
-0.026009282 0.13479689 0.70503998
-0.025208756 0.13494718 0.7058726
-0.021289211 0.13504337 0.70508796
-0.027362363 0.13184969 0.70623636
-0.027558908 0.13275433 0.70623797
-0.029428734 0.13361785 0.70632714
-0.021809887 0.13444485 0.70625603
-0.01733321 0.13447826 0.70659024
-0.026303096 0.12869294 0.70750701
-0.021583831 0.12958075 0.70783949
-0.027428521 0.13182732 0.7073493
-0.021746406 0.13142984 0.7078467
-0.023544513 0.13269277 0.70729554
-0.017212873 0.13287702 0.7071625
-0.024553305 0.13340428 0.70706517
-0.014589324 0.13309903 0.70845497
-0.021678755 0.12929276 0.70941061
-0.018968152 0.13017184 0.70977849
-0.01713557 0.13099808 0.70937431
-0.016726563 0.13033447 0.70963567
-0.020824786 0.12971333 0.71079648
-0.019273641 0.12979683 0.71044737
-0.019562101 0.13077241 0.71042216
-0.023079379 0.13192381 0.71080476
-0.017857444 0.13236886 0.71031928
-0.012642983 0.13225004 0.71039319
-0.019877482 0.12888984 0.71162605
-0.016589312 0.12991542 0.711734
-0.024916399 0.13146292 0.71130764
-0.018218152 0.1283837 0.71271068
-0.017239522 0.12821959 0.71270007
-0.017485673 0.13048862 0.71239585
-0.013455237 0.13001691 0.7128194
-0.009354867 0.13073932 0.71253037
-0.01648079 0.12689209 0.71354282
-0.02089325 0.12863639 0.71310985
-0.017780924 0.1288247 0.71304703
-0.016013565 0.12921923 0.71320277
-0.01307174 0.12999405 0.71394885
-0.011720255 0.12640551 0.71491992
-0.012965125 0.12878624 0.71488941
-0.010607429 0.12743971 0.71565014
-0.015005472 0.12843525 0.7158398
-0.011681878 0.12894197 0.71502757
-0.017963616 0.12590511 0.71635538
-0.012750872 0.1251131 0.71657109
-0.0075384909 0.12536457 0.71656156
-0.017076746 0.12663555 0.71634638
-0.016381891 0.12660642 0.71699756
-0.013152092 0.12795834 0.71647108
-0.00775882 0.12724307 0.71615553
-0.0058182697 0.12889262 0.7162925
-0.010762226 0.12574254 0.71791416
-0.0033512367 0.12698521 0.71730447
-0.001885504 0.12707712 0.71725053
-0.0099865226 0.12376274 0.71803319
-0.005058032 0.12553036 0.71882057
-0.015416307 0.12679803 0.71856296
-0.0088364491 0.12695472 0.71806985
-0.012026062 0.12719454 0.71805698
-0.0090835616 0.12784961 0.7182228
-0.0037399114 0.12752698 0.71860695
-0.0029001103 0.12783368 0.71841139
-0.0062563936 0.12164267 0.71984941
-0.009140132 0.12278713 0.719495
-0.0032976696 0.12374192 0.71965075
-0.0019584286 0.12518951 0.71937096
-0.0022495398 0.12646271 0.71977878
-0.0017326429 0.12731053 0.71911734
0.011239169 0.12207038 0.7209428
-0.007834699 0.12313934 0.7206319
0.0097537031 0.12324697 0.72086048
-0.013963594 0.12455811 0.72002578
-0.0041188248 0.12417551 0.72051078
-0.0082051698 0.12567776 0.72035396
-0.0063456674 0.1250654 0.72002423
-0.0053883856 0.12530737 0.72073406
0.00033558626 0.12616101 0.72073579
0.0040006177 0.12604696 0.72032428
-0.008371681 0.12071571 0.72150564
0.011504027 0.1228998 0.72136122
-0.0093996618 0.12326012 0.72159874
-0.0060601695 0.12382578 0.72114551
-0.005523371 0.12303359 0.72140288
0.0087793292 0.12333861 0.7219798
0.007215444 0.12493503 0.72184855
0.0051738042 0.12566756 0.72152919
0.0065366472 0.12581913 0.72106403
0.010937914 0.1256009 0.72103119
0.011935345 0.12603655 0.721542
-0.00656542 0.12181638 0.72239536
0.0095572593 0.12207418 0.72228837
-0.0081903432 0.1233175 0.72209537
0.010561524 0.12363289 0.7221505
0.014958865 0.12377385 0.72229558
-0.0086166011 0.12416843 0.72216803
0.0023583912 0.12499818 0.72260654
0.0067976634 0.12462342 0.72266656
0.015425245 0.12417252 0.72215301
0.0036649839 0.12502471 0.7228561
0.009216168 0.12527564 0.72228903
0.016690452 0.12517251 0.72272682
0.011931566 0.12064879 0.72348613
0.0079011554 0.12104125 0.72330856
0.014869201 0.12222066 0.72334468
0.016121829 0.12225731 0.72373199
0.017436935 0.12302195 0.72379726
0.0099189654 0.12157784 0.72459978
0.012033836 0.12166417 0.72456181
0.005336294 0.12229189 0.7244665
0.0096209217 0.12327296 0.72437054
0.015924355 0.12378143 0.7248739
0.018158769 0.12374057 0.72420055
0.0071530477 0.12408103 0.72455037
0.014735841 0.12080707 0.72505713
0.016747996 0.12058581 0.725416
0.019154884 0.12000635 0.72552687
0.00582447 0.1213617 0.72580492
0.016141444 0.12238296 0.72532672
0.020896735 0.12215745 0.72562152
0.01934652 0.11682778 0.72679269
0.015542359 0.11914939 0.72658676
0.016200477 0.12003061 0.72643262
0.017284375 0.12002214 0.72655153
0.018169738 0.12127867 0.72654563
0.018813228 0.1220367 0.7262252
0.021810461 0.12279201 0.72629601
0.016986284 0.11695214 0.72730714
0.018825911 0.1166053 0.72786868
0.01429835 0.11716805 0.72725451
0.018737651 0.11862407 0.72724134
0.019483555 0.11874237 0.72780508
0.011992893 0.11947423 0.72767699
0.021051571 0.12078705 0.72753173
0.01197173 0.11791568 0.72816163
0.020479217 0.11755537 0.72878003
0.02202375 0.11804484 0.72838444
0.017855207 0.11993862 0.72852832
0.018782489 0.12065152 0.7281251
0.021393722 0.11523567 0.72942692
0.0097747268 0.11870413 0.72904962
0.023318645 0.12016797 0.72955579
0.0220706 0.11624942 0.73054069
0.027774908 0.11626682 0.73083234
0.018624187 0.1171163 0.73080742
0.024061069 0.11771859 0.73011488
0.021822337 0.11805757 0.73097235
0.025922338 0.11942136 0.7302382
0.022170668 0.12070637 0.73007518
0.021012494 0.11662267 0.73194075
0.026854873 0.11651894 0.73171967
0.011931333 0.11790501 0.73103821
0.02750456 0.11827765 0.73173565
0.022163656 0.114556 0.73208928
0.017695148 0.11539105 0.73210335
0.025715295 0.1158824 0.73281181
0.015468279 0.11641424 0.73201048
0.027071713 0.11774846 0.7327286
0.030814614 0.11731375 0.73285586
0.01547002 0.11873028 0.73211282
0.028760785 0.11926553 0.73213643
0.029983519 0.11408014 0.73305321
0.020472404 0.11568657 0.73332661
0.023373667 0.11601169 0.73393381
0.030340837 0.11620309 0.73392975
0.027755026 0.11303135 0.73496598
0.033659581 0.11321338 0.73453355
0.023955863 0.11405404 0.73462617
0.028781882 0.11439774 0.73437524
0.032445446 0.11421607 0.73454463
0.019463817 0.11545677 0.73488742
0.028553296 0.11580867 0.73430115
0.029922975 0.11575793 0.73494613
0.022543913 0.11661106 0.73465443
0.026579408 0.11656306 0.73400033
0.032319866 0.1160097 0.73448062
0.025972733 0.11733075 0.73455417
0.033401001 0.11713441 0.73415625
0.031957835 0.1184416 0.73413694
0.026034864 0.11178935 0.73542464
0.025751989 0.11364713 0.73550999
0.032444939 0.11386415 0.73530978
0.033470176 0.1155697 0.73594564
0.030149044 0.11653847 0.73589247
0.023026103 0.11240675 0.73654985
0.033410415 0.11468814 0.73628843
0.035651099 0.11426803 0.73668748
0.020231096 0.11518402 0.73624599
0.030726222 0.11113834 0.73761004
0.023914956 0.11330028 0.73791456
0.037104934 0.11305662 0.73769164
0.036677174 0.11547348 0.73713714
0.038629677 0.1152839 0.73731452
0.033394191 0.11674801 0.73701453
0.027630467 0.11182868 0.73872495
0.031526938 0.11152187 0.73899728
0.032566361 0.1116052 0.73892051
0.03460896 0.11154337 0.73817652
0.030111395 0.11240158 0.73893774
0.036806814 0.11234067 0.7389909
0.025022803 0.11353192 0.73845404
0.026105201 0.11341714 0.73883766
0.039097171 0.11434116 0.73886353
0.040023416 0.1148859 0.73839605
0.039572909 0.11569408 0.73868525
0.028154073 0.11030797 0.73917341
0.034252826 0.11071824 0.73993927
0.032419782 0.11146019 0.73941201
0.036262553 0.11193708 0.73962134
0.035218395 0.11264227 0.73949993
0.041457508 0.11354198 0.73905474
0.034610432 0.1097733 0.74040419
0.029928586 0.11113523 0.74017459
0.03182767 0.11171836 0.74070197
0.041804492 0.11223879 0.74054629
0.039811675 0.11042172 0.74150032
0.039619576 0.11110503 0.74175692
0.040853199 0.11445423 0.74121523
0.032901686 0.10795584 0.74230236
0.041768748 0.1076076 0.74293077
0.038320154 0.10864252 0.74242568
0.036230404 0.11047516 0.74261391
0.045641072 0.11057653 0.74268442
0.042804413 0.1113186 0.74222946
0.041933365 0.11381289 0.74209362
0.033177555 0.1073781 0.74366593
0.028361302 0.10809637 0.74366909
0.037527267 0.10857326 0.7438572
0.038701624 0.10847465 0.74337614
0.04349957 0.1096532 0.74317348
0.04808012 0.11029612 0.74381089
0.041591845 0.11237083 0.74313587
0.032048725 0.10663626 0.74493593
0.043748122 0.10686345 0.7444464
0.035673376 0.10711087 0.74459434
0.039754543 0.1083124 0.74449915
0.044256795 0.10929783 0.74409771
0.036366306 0.1102275 0.74465615
0.039914001 0.11031552 0.74448442
0.044903416 0.11079162 0.74446672
0.037888676 0.10710177 0.74541652
0.050425265 0.10987891 0.74548531
0.04449302 0.11038249 0.74543291
0.047895372 0.11085346 0.74554414
0.03923095 0.10422072 0.74621552
0.046251852 0.10460462 0.74634153
0.039662961 0.1053084 0.7467708
0.044147015 0.10585285 0.74689537
0.045906357 0.10668714 0.74647343
0.038285118 0.10764248 0.74618292
0.046888214 0.10772926 0.74655211
0.049376134 0.10767931 0.7465899
0.045931283 0.10847098 0.74625313
0.046065319 0.10856476 0.74609441
0.049573146 0.10912911 0.74670291
0.041406278 0.10527179 0.74722344
0.044036541 0.1052767 0.74751258
0.047910959 0.10589638 0.74759281
0.04490133 0.1081479 0.74794596
0.049165659 0.10864949 0.74758017
0.043771882 0.10362604 0.74865544
0.039811485 0.10479272 0.74810487
0.046915121 0.1047786 0.74853867
0.041206658 0.10602732 0.74833173
0.047752719 0.10653196 0.74863845
0.048229113 0.10680249 0.74875116
0.046635799 0.10761419 0.74880368
0.051031098 0.10856239 0.74829584
0.050628234 0.10963581 0.74873084
0.044901513 0.10253762 0.74951339
0.053504433 0.10626537 0.74963319
0.050975662 0.1073191 0.74944699
0.050651021 0.1089412 0.74912828
0.051981501 0.10902849 0.74963009
0.053206805 0.10913855 0.74940795
0.048060551 0.10264248 0.75015736
0.043821596 0.10432498 0.75053579
0.041579887 0.10531557 0.75025117
0.038675807 0.10662473 0.75071174
0.05078686 0.1060001 0.75072503
0.051716436 0.10782226 0.75096732
0.054446153 0.10301819 0.7511242
0.053882614 0.10414962 0.75194234
0.050194766 0.10522991 0.75132346
0.056188095 0.10748348 0.75186646
0.049672529 0.10157824 0.75211918
0.051386055 0.10224818 0.75279433
0.044668235 0.10344136 0.75272578
0.05119079 0.10376187 0.75219351
0.045208827 0.1044191 0.75208312
0.049362697 0.10488844 0.75292021
0.051326487 0.10402051 0.75238907
0.055565935 0.10622944 0.75238067
0.051665097 0.10088943 0.75300723
0.052028097 0.10155198 0.7531777
0.053520665 0.10256352 0.75386894
0.055926744 0.10372773 0.75312984
0.059510224 0.10300324 0.75384694
0.056929905 0.10569863 0.75329721
0.053388707 0.09892562 0.75401193
0.045956548 0.10106548 0.7549352
0.05070404 0.10160152 0.75465477
0.054338079 0.1018697 0.75455159
0.048491124 0.10227048 0.75471729
0.053131633 0.1032705 0.75454098
0.058021516 0.10341113 0.75473624
0.042746346 0.10415032 0.75410086
0.058037765 0.10426325 0.75429314
0.059757333 0.1064654 0.75423115
0.045184333 0.10181528 0.75543791
0.053052742 0.10198856 0.75577646
0.057468526 0.10373171 0.75544298
0.060492773 0.10365405 0.7555269
0.057741508 0.10465557 0.75515068
0.054121573 0.097623564 0.7569499
0.059568614 0.099618495 0.75634128
0.051847704 0.10031782 0.75672251
0.050037466 0.10199147 0.75612646
0.056803528 0.10396075 0.75681293
0.062048957 0.10442569 0.75654668
0.056404579 0.097509816 0.75717503
0.056771677 0.098212339 0.75798517
0.061592165 0.098939933 0.75790083
0.055713233 0.099856287 0.75764078
0.057438727 0.099635601 0.75786442
0.059955887 0.099950112 0.75706893
0.058000937 0.10045436 0.75747406
0.060717665 0.10045727 0.75749391
0.058263063 0.1018448 0.75797719
0.061221205 0.10134981 0.75715667
0.058013294 0.10235386 0.75738841
0.0611673 0.10227802 0.75750953
0.063330963 0.10452867 0.75733799
0.058613244 0.097951077 0.75839806
0.058804385 0.098963536 0.75810134
0.062131863 0.0999493 0.75851315
0.049390934 0.10084606 0.75854021
0.064697757 0.10009624 0.75898719
0.048724864 0.10164389 0.75801164
0.054119136 0.09714938 0.75983477
0.062170397 0.097879976 0.75968796
0.061687071 0.10148643 0.75907135
0.067873672 0.10149849 0.75919431
0.067828424 0.10219582 0.75968677
0.056689098 0.097114243 0.76069206
0.059592161 0.097539216 0.76050526
0.060175192 0.098617114 0.76075482
0.0678498 0.098673888 0.76016116
0.064618863 0.099168219 0.76092827
0.066102475 0.10066183 0.76046067
0.066335127 0.10151342 0.76046681
0.064044565 0.10296223 0.76001328
0.06786754 0.10308629 0.76012361
0.061532129 0.09407068 0.76161724
0.052887503 0.096751869 0.76138812
0.067260519 0.096863709 0.76122439
0.067071542 0.09752097 0.76181036
0.066908203 0.099968277 0.76135862
0.07121025 0.10072535 0.76165837
0.063684598 0.093391128 0.76223505
0.05730607 0.095151536 0.76268762
0.059512462 0.095496371 0.76257968
0.06354107 0.095736295 0.7626164
0.069938548 0.097359277 0.76255876
0.074253254 0.099021412 0.76281559
0.067935914 0.093744941 0.76305497
0.063059226 0.095260143 0.76350307
0.07423456 0.0964697 0.76393569
0.06396614 0.097786419 0.76313978
0.068926826 0.097799465 0.76318711
0.072061323 0.097304821 0.76335716
0.052243859 0.099446796 0.76303941
0.066245355 0.094797 0.76426697
0.070964895 0.094046257 0.76474178
0.05897196 0.095703982 0.76405704
0.069538474 0.095991328 0.76490009
0.066035785 0.096100844 0.76429445
0.067649022 0.097581372 0.76418686
0.069987118 0.099127106 0.76462299
0.074090973 0.092996575 0.76596916
0.066776425 0.093437932 0.76512212
0.058036678 0.094883114 0.76562297
0.064123683 0.095826708 0.76546001
0.07177601 0.095172748 0.7654981
0.073368289 0.09570428 0.76550913
0.074079648 0.096418284 0.76514018
0.073383428 0.097374253 0.76516449
0.067880981 0.093939498 0.76618677
0.068242759 0.093651116 0.7665382
0.070764959 0.093311943 0.76697308
0.068423405 0.094666936 0.76608878
0.070786715 0.094502419 0.76684684
0.076001436 0.094966918 0.76696777
0.062587924 0.095241323 0.76615202
0.075984582 0.096170858 0.76685405
0.076297387 0.098155729 0.76635903
0.068661869 0.089983702 0.76750618
0.061792187 0.092753351 0.76753831
0.070889264 0.092609286 0.76750696
0.066966116 0.093811475 0.76738578
0.067626357 0.094784804 0.76773316
0.076825932 0.094182424 0.76727808
0.059147473 0.095278241 0.7673828
0.073311307 0.09818048 0.76778507
0.076502539 0.098936222 0.76709044
0.068208151 0.089645095 0.76856089
0.07247775 0.08969558 0.7687816
0.076897487 0.093253076 0.76821202
0.076925047 0.096249886 0.76820779
0.081328467 0.097920969 0.76825112
0.071837209 0.090789244 0.7699306
0.077758826 0.091179848 0.76962078
0.061504792 0.092584923 0.7694155
0.075391427 0.09259671 0.76994872
0.07939221 0.096539244 0.76947558
0.076365188 0.088470839 0.77066219
0.069752149 0.089829944 0.7703889
0.071182437 0.090676166 0.77094191
0.07388597 0.090707399 0.77080178
0.073091298 0.092910334 0.77077842
0.0794513 0.094829842 0.77075213
0.07665696 0.095929906 0.77016616
0.077735081 0.096770555 0.77010101
0.070075713 0.089534245 0.77126813
0.065948285 0.090829782 0.77100772
0.079627544 0.09370546 0.77165705
0.079849787 0.09428104 0.77119112
0.080634974 0.09542346 0.77190405
0.082008868 0.095745333 0.77176237
0.070755892 0.08848729 0.77219617
0.078688554 0.088768892 0.77298731
0.080668345 0.088723101 0.77295065
0.075979978 0.089808188 0.77209187
0.080155239 0.08964172 0.77280277
0.075150944 0.090826206 0.77274859
0.079357572 0.092096627 0.77220565
0.081939176 0.093900427 0.77213055
0.081022836 0.094506942 0.77218068
0.079127334 0.088461362 0.77303278
0.079009362 0.089792334 0.77397627
0.067944422 0.09012261 0.7733264
0.071926512 0.090298653 0.77300721
0.08317256 0.092584208 0.77376729
0.0796699 0.093313292 0.77338523
0.083648272 0.094678834 0.77312213
0.071587928 0.087499864 0.77405053
0.075553417 0.085346431 0.77576685
0.076640464 0.085858092 0.77534622
0.077237442 0.087144956 0.77500552
0.076489687 0.088473924 0.77524489
0.073297665 0.089774296 0.77505511
0.078897581 0.087323159 0.77643538
0.081188001 0.08895418 0.77623147
0.081252538 0.089713514 0.77673709
0.083445191 0.092575602 0.77614993
0.071900114 0.086810067 0.777022
0.07894247 0.086108252 0.77776235
0.070228212 0.089058235 0.77703863
