# .PCD v0.7 - Point Cloud Data file format
VERSION 0.7
FIELDS x y z
SIZE 4 4 4
TYPE F F F
COUNT 1 1 1
WIDTH 132
HEIGHT 1
VIEWPOINT 0 0 0 1 0 0 0
POINTS 132
DATA ascii
64.526489 49.95285 0.025638139
63.563251 48.094208 2.7630038
57.205875 48.68454 1.2072482
66.362793 49.352325 -0.24367949
61.976032 49.270355 0.35010102
58.931355 49.708771 0.15503266
61.789997 49.990204 -1.1740079
64.965881 50.591705 -1.4977078
60.869465 50.075348 -1.9163175
57.550114 50.65213 -1.9324613
61.854237 51.146454 -2.5814176
66.036606 47.3638 0.67883641
63.115116 48.675812 -0.15496489
61.805058 48.716339 -1.1672025
57.621998 48.543182 -1.56741
60.226215 49.488739 -2.3689237
63.150623 46.406525 0.17166474
53.770344 47.550323 -1.0585904
61.046406 49.034821 -2.7636075
59.992863 48.409943 -2.7613492
61.410084 43.099823 3.6837192
64.121002 45.756134 0.96051365
65.71814 45.768524 -0.10058256
64.498978 45.605988 0.66064793
65.8564 44.070465 1.5641513
66.503357 44.021027 0.46384004
68.532104 44.430695 -0.32626006
65.090714 45.495819 -0.88009304
67.55513 46.798248 -2.8170438
67.32457 46.392731 -2.5680509
63.07465 42.113556 2.6232944
68.84668 43.683868 -0.61077541
70.005478 42.487457 -0.37603423
67.354553 42.407745 -0.36605498
56.316532 39.166779 4.0939364
61.432987 38.701752 3.3914218
65.52446 40.674347 0.12982515
59.208988 36.663239 3.264255
64.101471 36.135895 1.7397189
53.744099 34.332062 3.9885898
47.852253 23.386507 0.66879612
-28.657391 -8.4684734 1.0733676
-30.651928 -9.8468914 0.83276707
-30.397564 -10.189054 -1.2227139
-34.67033 -13.171904 1.7507358
-43.203838 -20.075224 1.3543735
-40.679577 -18.193449 -1.2913785
-42.095867 -19.278349 -1.5000577
-47.496227 -22.280485 0.9694553
-46.18211 -23.113737 0.17578462
-50.755444 -26.960051 0.048343219
-50.687176 -25.220427 -1.1391263
-52.541637 -27.686979 0.016849076
-57.869488 -30.191618 2.3061862
-54.710918 -28.621305 -1.0884671
-55.178875 -30.118193 -1.7482266
-61.986553 -34.393524 -0.70611233
-58.437542 -33.753387 -1.1337552
-59.713238 -34.285248 -2.4923368
-66.463913 -38.280548 0.60675389
-65.25264 -43.377228 -2.1597562
-66.967575 -46.349274 -3.1536832
-73.877518 -48.243317 -3.1118741
-74.379807 -57.772064 1.3074985
-74.914398 -56.744843 2.031467
-70.027313 -58.571625 -2.4569974
-68.194183 -58.235443 -2.2550626
-73.119324 -56.48819 0.59683567
-75.456085 -56.960114 -0.41125152
-70.262939 -57.457733 -1.8331265
-72.703018 -57.262848 -2.4052091
-71.814362 -57.645477 -2.2068448
-72.380005 -55.06424 0.48480561
-74.895325 -56.243439 -1.9334989
-73.126801 -56.756683 -2.766232
-69.686203 -54.85379 -0.81414455
-74.271149 -55.388519 -1.4816556
-73.314316 -54.807404 -1.9598966
-70.613953 -52.121674 1.2636752
-69.771454 -51.822052 1.3959384
-71.20401 -52.560516 0.60907322
-71.333069 -53.303802 -0.78356594
-70.508041 -54.84433 -3.1264615
-67.133148 -55.149628 -3.1098599
-68.583466 -51.658173 0.37555268
-67.362717 -52.69809 -1.2864957
-68.720459 -53.06308 -1.634335
-63.841351 -53.233307 -2.1809659
-64.765167 -53.27066 -2.6500211
-71.294556 -50.072296 0.52594334
-67.657135 -50.824921 -0.28008696
-65.664383 -50.462433 -0.88320583
-66.218903 -51.717133 -1.3837857
-63.663235 -52.17923 -2.2737393
-68.268692 -48.960052 0.61749607
-60.405087 -50.155243 -1.5670743
-56.929485 -51.042084 -3.1049771
-64.762665 -47.992767 0.59118992
-68.845291 -49.799957 -1.9087186
-66.133209 -49.625275 -1.733212
-65.272263 -49.496429 -1.8915982
-62.417385 -49.345001 -2.1132169
-60.001919 -49.354889 -1.6647916
-63.026699 -46.265594 0.4318271
-64.957153 -47.414154 -1.4337735
-58.447033 -48.916229 -3.1971402
-64.796524 -45.026947 0.8389011
-61.617443 -47.065887 -1.5870938
-59.633801 -47.912323 -2.9292264
-56.44949 -48.142914 -3.1535611
-65.596375 -44.76004 0.39975312
-62.696331 -46.607147 -2.4865079
-64.366135 -44.099762 -1.1617703
-45.578014 -43.776093 -3.1400113
47.336536 42.567291 4.1007113
60.44698 38.091339 -2.8858609
40.629597 41.814117 1.1414523
55.49477 44.969513 4.0364413
45.075062 44.074677 1.8401828
49.885242 46.285553 3.2495151
47.071766 46.430389 1.2697787
62.770161 43.932831 -2.5687222
50.71825 48.384064 3.1576571
55.772663 50.331268 3.9085727
56.368122 49.383942 2.9723544
55.618732 48.915802 1.7066684
52.42519 48.093719 0.68631321
58.027912 50.524567 2.0908847
60.316425 49.51944 0.78686863
60.379993 49.569611 -0.12414213
62.569233 47.609161 -2.294003
58.074055 52.284637 2.4636874
